ncols         418
nrows         30
xllcorner     199038.880023
yllcorner     439759.695276
cellsize      10
NODATA_value  -9999
66.73817 67.80566 69.08658 69.80666 69.98598 69.7657 69.56519 70.12027 71.25436 72.71867 74.31918 75.48652 77.76528 80.0674 82.25464 84.56579 87.12801 89.24226 91.30441 93.07121 94.30476 94.71081 94.71702 94.6736 94.85051 95.45307 96.77794 97.9341 98.60896 98.75821 98.39836 97.63332 96.66388 95.55698 94.74945 93.87108 93.53076 93.97861 95.59581 98.88593 102.2848 105.6063 108.9884 112.1125 115.1347 117.887 120.8051 123.9438 127.184 130.3105 133.946 137.9644 141.9571 145.4783 148.7476 151.8476 155.2834 158.8004 162.1248 165.5131 168.2804 169.6957 168.6894 165.2208 160.6823 155.8261 151.0596 146.556 142.5241 138.8481 135.0409 131.1444 127.6215 124.5468 121.9314 119.6186 117.3701 114.925 112.1293 109.1015 105.6373 102.4595 99.44355 96.51002 94.74534 -9999 -9999 -9999 -9999 -9999 -9999 -9999 -9999 -9999 -9999 82.12807 84.20773 85.31149 86.31386 88.83949 91.89457 94.20146 95.68999 96.86925 98.06656 99.55612 101.651 104.5651 107.7239 110.3684 112.1892 113.4372 114.5992 115.3468 115.7097 116.0227 116.556 117.0087 117.4946 118.1548 118.7329 119.4006 120.0828 121.0206 121.8805 123.6375 126.26 130.1276 134.3846 137.992 140.4649 142.9937 146.3373 149.7111 152.5519 154.2895 154.2229 152.0757 149.2717 146.1092 143.8807 142.059 140.1182 138.0431 135.6004 133.0626 130.5331 128.3125 126.5995 126.2491 126.5458 126.2916 125.261 123.4244 120.9323 118.0701 115.3262 113.2635 111.8709 110.7923 109.797 108.5165 106.9403 104.9927 102.7131 100.4308 98.87819 97.5396 96.24641 95.20203 94.65199 94.68027 94.87906 95.01945 95.05669 95.03487 94.89896 94.44785 93.39292 91.61022 90.06731 88.42523 86.23095 84.04838 81.77801 79.88738 77.82822 75.57946 73.62004 71.815 70.12876 68.38441 66.22407 64.16065 61.79123 -9999 -9999 -9999 -9999 -9999 -9999 -9999 -9999 -9999 -9999 -9999 -9999 -9999 -9999 -9999 52.15031 -9999 -9999 -9999 -9999 59.55318 61.71562 63.78685 65.80327 67.98476 69.6043 70.29996 70.57814 70.49921 69.5392 67.7107 65.93578 65.12978 65.1625 65.68144 66.74487 68.4518 69.56983 70.17054 70.61886 71.06718 71.02728 68.93661 64.32952 59.09626 54.79169 51.35313 49.58128 48.78006 48.10358 47.41853 46.62344 -9999 -9999 -9999 -9999 -9999 -9999 -9999 -9999 -9999 -9999 -9999 -9999 -9999 -9999 -9999 -9999 -9999 -9999 -9999 -9999 -9999 -9999 -9999 -9999 -9999 -9999 -9999 -9999 -9999 -9999 -9999 -9999 -9999 -9999 -9999 -9999 -9999 -9999 -9999 -9999 -9999 -9999 -9999 -9999 -9999 -9999 -9999 -9999 -9999 -9999 -9999 -9999 -9999 -9999 -9999 -9999 -9999 -9999 -9999 -9999 -9999 -9999 -9999 -9999 -9999 -9999 -9999 -9999 -9999 -9999 -9999 -9999 -9999 -9999 -9999 -9999 -9999 -9999 -9999 -9999 -9999 -9999 -9999 -9999 -9999 -9999 -9999 -9999 -9999 -9999 -9999 -9999 -9999 -9999 -9999 -9999 -9999 -9999 -9999 -9999 -9999 -9999 -9999 -9999 -9999 -9999 -9999 -9999 -9999 -9999 -9999 -9999 -9999 -9999 -9999 -9999 -9999 -9999 -9999 -9999 -9999 -9999 -9999 -9999 -9999 -9999 -9999 -9999 -9999 -9999 -9999 -9999 -9999 -9999 -9999 -9999 -9999 -9999 -9999 -9999 -9999 -9999 -9999 -9999 -9999 -9999 -9999 -9999 -9999 -9999 -9999 -9999 -9999 -9999 -9999 -9999 -9999 -9999 -9999 -9999 -9999 -9999 -9999 -9999 -9999 -9999 -9999 -9999 -9999 -9999 -9999
67.36273 67.92763 68.64483 69.28961 69.6288 69.51828 69.36827 69.66195 70.30333 71.2144 72.24919 73.39449 76.69113 79.09706 81.0186 82.83609 84.7243 86.63367 89.28417 91.97545 94.43648 95.64333 96.15594 96.29771 96.51575 97.35837 98.66397 100.0665 101.0166 101.2659 100.7741 99.71461 98.54398 97.50084 96.70052 95.86008 95.40427 95.42926 96.45821 99.1168 101.9398 104.8472 107.8091 110.6187 113.4979 115.6777 118.156 120.7817 123.6598 126.5534 130.0347 133.9921 137.8194 141.0676 144.3595 147.6553 151.4605 155.5807 159.7959 163.7902 166.7459 168.1475 167.3 164.2795 159.8596 154.9993 150.1127 145.4508 141.302 137.785 134.1515 130.1184 126.3755 123.2233 120.4798 118.2123 116.09 113.9735 111.3112 108.568 105.25 102.0899 99.02681 95.79373 -9999 -9999 -9999 -9999 -9999 -9999 -9999 -9999 -9999 -9999 -9999 80.78555 83.4244 84.78015 85.60382 88.03532 91.29507 93.73043 94.89934 95.86288 96.90617 98.15221 99.85321 102.22 105.4299 108.0099 109.6805 110.6529 111.589 112.1426 112.4247 112.7166 113.1984 113.4987 113.7894 114.0673 114.4981 115.5156 116.8577 119.0327 120.6219 123.2519 126.2118 130.0326 133.832 136.532 138.5822 140.9819 144.1364 147.0838 149.5669 151.2771 152.0435 151.359 149.8243 147.6688 146.4565 145.2942 143.5207 141.4335 139.068 136.6995 134.542 132.8766 131.8488 131.7078 131.7335 131.0679 129.3472 126.7537 123.6933 120.4027 117.5158 115.8306 114.8252 113.9968 112.9973 111.4977 109.7186 107.3775 104.7807 102.2881 100.8691 99.92856 98.92288 97.99111 97.82876 98.32188 98.81664 99.24535 99.67203 99.89686 99.89553 99.49161 98.38177 96.45284 94.62344 92.56792 90.13641 87.60738 85.11446 82.70982 80.1728 77.41311 75.32298 73.49139 71.93837 70.56277 69.14347 67.48887 65.11806 63.07952 -9999 -9999 -9999 -9999 -9999 -9999 -9999 -9999 -9999 -9999 -9999 -9999 -9999 -9999 -9999 -9999 -9999 -9999 55.65783 58.19923 60.57648 62.8644 64.94704 66.68193 67.86736 68.23384 68.06372 67.64651 66.68927 65.08257 63.5165 62.53177 62.3082 62.70789 63.83116 65.60719 67.0219 67.92843 68.61865 69.36928 69.96638 69.25078 65.78766 61.27156 57.12239 53.72253 51.34036 49.92624 48.8348 47.72173 46.44135 -9999 -9999 -9999 -9999 -9999 -9999 -9999 -9999 -9999 -9999 -9999 -9999 -9999 -9999 -9999 -9999 -9999 -9999 -9999 -9999 -9999 -9999 -9999 -9999 -9999 -9999 -9999 -9999 -9999 -9999 -9999 -9999 -9999 -9999 -9999 -9999 -9999 -9999 -9999 -9999 -9999 -9999 -9999 -9999 -9999 -9999 -9999 -9999 -9999 -9999 -9999 -9999 -9999 -9999 -9999 -9999 -9999 -9999 -9999 -9999 -9999 -9999 -9999 -9999 -9999 -9999 -9999 -9999 -9999 -9999 -9999 -9999 -9999 -9999 -9999 -9999 -9999 -9999 -9999 -9999 -9999 -9999 -9999 -9999 -9999 -9999 -9999 -9999 -9999 -9999 -9999 -9999 -9999 -9999 -9999 -9999 -9999 -9999 -9999 -9999 -9999 -9999 -9999 -9999 -9999 -9999 -9999 -9999 -9999 -9999 -9999 -9999 -9999 -9999 -9999 -9999 -9999 -9999 -9999 -9999 -9999 -9999 -9999 -9999 -9999 -9999 -9999 -9999 -9999 -9999 -9999 -9999 -9999 -9999 -9999 -9999 -9999 -9999 -9999 -9999 -9999 -9999 -9999 -9999 -9999 -9999 -9999 -9999 -9999 -9999 -9999 -9999 -9999 -9999 -9999 -9999 -9999 -9999 -9999 -9999 -9999 -9999 -9999 -9999 -9999 -9999 -9999 -9999 -9999 -9999 -9999
68.30089 68.2285 68.25399 68.79288 69.29574 69.23541 69.1908 69.44533 69.89636 70.73213 72.01089 73.91207 77.2316 79.07158 80.44441 81.73878 83.19974 85.05524 87.7809 91.24879 95.04066 98.0081 99.55528 100.0041 100.0972 100.5318 101.6464 103.3697 104.6748 105.0853 104.4621 103.0005 101.5985 100.6412 100.0424 99.51499 99.07317 98.78156 99.23618 100.7653 102.9277 105.2818 107.8432 110.2158 112.608 114.4117 116.1439 118.6569 121.0808 123.8826 126.9737 130.724 134.3661 137.5256 141.0071 144.7269 148.7347 153.0887 157.8404 162.1233 165.3324 166.7757 165.9934 163.2001 159.0369 154.4894 149.756 145.1162 140.9755 137.581 134.1103 130.1836 126.4238 123.1534 120.1309 117.5848 115.2338 113.0081 110.4568 107.9046 105.0143 102.0553 99.05207 95.72732 -9999 -9999 -9999 -9999 -9999 -9999 -9999 -9999 -9999 -9999 -9999 -9999 82.14134 83.86322 84.77985 86.71709 89.6814 91.73967 92.98017 94.29153 95.69174 97.06345 98.7925 101.1771 104.3219 106.3231 107.3521 107.8751 108.4387 108.7353 108.9019 109.0898 109.325 109.6274 110.2487 110.7249 111.4969 113.6305 115.844 118.64 120.9197 123.8653 126.5482 129.7084 132.7148 134.6804 136.4501 138.96 141.7924 144.2184 146.2604 148.0969 149.387 149.9249 150.0043 149.7699 149.3307 148.3905 146.5272 144.4439 142.0788 140.1882 138.5848 137.7773 137.6531 137.9663 137.9345 136.9177 134.5564 131.1572 127.4235 123.8141 121.109 119.7136 118.9461 118.4098 117.5694 116.0383 113.989 111.3106 108.5983 106.2377 104.8616 104.0458 103.3203 102.8564 102.9407 103.507 104.0392 104.4735 104.8335 105.0432 105.0401 104.6221 103.4677 101.4523 99.43804 97.13104 94.52839 91.74143 89.17028 86.45489 83.73878 80.62637 77.84839 75.49727 73.67641 72.2605 70.99345 69.55537 67.48528 -9999 -9999 -9999 -9999 -9999 -9999 -9999 -9999 -9999 -9999 -9999 -9999 -9999 -9999 -9999 -9999 -9999 -9999 -9999 54.59573 57.0596 59.57212 61.68372 63.67234 65.05567 66.02156 66.16804 65.63852 65.09631 64.24082 62.77603 61.4154 60.35056 60.0379 60.32557 61.43457 63.4832 64.87387 65.88506 66.66167 67.61324 68.86232 69.80809 68.08337 64.90522 61.21169 57.78111 54.99727 52.66859 50.92541 49.16347 47.18468 45.02689 -9999 -9999 -9999 -9999 -9999 -9999 -9999 -9999 -9999 -9999 -9999 -9999 -9999 -9999 -9999 -9999 -9999 -9999 -9999 -9999 -9999 -9999 -9999 -9999 -9999 -9999 -9999 -9999 -9999 -9999 -9999 -9999 -9999 -9999 -9999 -9999 -9999 -9999 -9999 -9999 -9999 -9999 -9999 -9999 -9999 -9999 -9999 -9999 -9999 -9999 -9999 -9999 -9999 -9999 -9999 -9999 -9999 -9999 -9999 -9999 -9999 -9999 -9999 -9999 -9999 -9999 -9999 -9999 -9999 -9999 -9999 -9999 -9999 -9999 -9999 -9999 -9999 -9999 -9999 -9999 -9999 -9999 -9999 -9999 -9999 -9999 -9999 -9999 -9999 -9999 -9999 -9999 -9999 -9999 -9999 -9999 -9999 -9999 -9999 -9999 -9999 -9999 -9999 -9999 -9999 -9999 -9999 -9999 -9999 -9999 -9999 -9999 -9999 -9999 -9999 -9999 -9999 -9999 -9999 -9999 -9999 -9999 -9999 -9999 -9999 -9999 -9999 -9999 -9999 -9999 -9999 -9999 -9999 -9999 -9999 -9999 -9999 -9999 -9999 -9999 -9999 -9999 -9999 -9999 -9999 -9999 -9999 -9999 -9999 -9999 -9999 -9999 -9999 -9999 -9999 -9999 -9999 -9999 -9999 -9999 -9999 -9999 -9999 -9999 -9999 -9999 -9999 -9999 -9999 -9999
70.09252 69.31194 68.75352 68.54946 68.74266 68.91859 69.21633 69.54616 69.94937 70.97742 72.74725 75.25223 77.78612 79.31126 80.30672 81.22066 82.40459 84.18585 86.97029 91.26139 96.00707 100.0335 102.7801 103.6265 103.6893 104.0008 105.4151 107.8435 109.9488 110.7945 110.1277 108.2348 106.3322 105.1626 104.5797 104.2069 103.8254 103.413 103.4874 104.3309 105.8424 107.6485 109.8284 111.7163 113.7961 115.357 116.7744 119.0967 121.1339 123.6308 126.3788 129.7895 133.0938 136.1447 139.7593 143.4938 147.2581 151.5258 156.3136 160.9293 164.5561 165.9237 164.9629 161.8686 158.0116 154.0774 149.7079 145.2646 141.3229 138.1145 134.7527 131.0968 127.5471 124.0871 120.6526 117.7794 115.1315 112.6939 110.1047 107.5669 104.898 102.0814 99.19514 95.95533 -9999 -9999 -9999 -9999 -9999 -9999 -9999 -9999 -9999 -9999 -9999 -9999 80.3369 81.861 83.19928 85.32506 87.78315 89.18218 90.25249 91.92358 94.25741 95.94437 97.91214 100.6056 103.5095 104.7163 104.8084 104.5092 104.4387 104.5735 104.8866 105.3818 105.863 106.6592 108.6305 110.304 111.8165 114.5031 117.1233 120.1552 122.3101 124.5808 126.2974 128.4202 130.3449 132.1599 134.2644 136.8139 139.2929 141.2049 143.0715 144.794 146.1484 147.4774 148.7215 149.4927 149.9725 149.8502 149.2027 147.6881 145.7988 144.5253 143.7619 143.6541 144.1096 144.6441 144.4991 143.1064 140.1423 136.0552 131.7434 127.9976 125.5471 124.5603 124.2647 124.0742 123.4075 121.8585 119.5361 116.6811 113.9271 111.5409 110.0683 109.3174 108.8834 108.7117 108.87 109.2868 109.717 110.064 110.2714 110.3568 110.2653 109.7719 108.5448 106.4672 104.3391 101.879 99.24383 96.38822 93.77528 90.9664 88.12669 84.71684 81.26523 78.25482 75.79946 73.99756 72.52528 71.04662 69.25409 -9999 -9999 -9999 -9999 56.7725 -9999 -9999 -9999 -9999 -9999 -9999 -9999 -9999 -9999 -9999 -9999 -9999 -9999 -9999 53.09563 55.39953 57.74598 59.38421 60.97746 62.53053 63.69294 63.88598 63.27923 62.59084 61.68438 60.45378 59.52357 58.66569 58.36235 58.66357 59.69732 61.23825 62.51426 63.58978 64.29599 65.2832 66.85723 69.00578 69.64245 68.0845 65.72968 62.90684 60.03166 57.19038 54.54332 51.95266 49.22951 46.56043 -9999 -9999 -9999 -9999 -9999 -9999 -9999 -9999 -9999 -9999 -9999 -9999 -9999 -9999 -9999 -9999 -9999 -9999 -9999 -9999 -9999 -9999 -9999 -9999 -9999 -9999 -9999 -9999 -9999 -9999 -9999 -9999 -9999 -9999 -9999 -9999 -9999 -9999 -9999 -9999 -9999 -9999 -9999 -9999 -9999 -9999 -9999 -9999 -9999 -9999 -9999 -9999 -9999 -9999 -9999 -9999 -9999 -9999 -9999 -9999 -9999 -9999 -9999 -9999 -9999 -9999 -9999 -9999 -9999 -9999 -9999 -9999 -9999 -9999 -9999 -9999 -9999 -9999 -9999 -9999 -9999 -9999 -9999 -9999 -9999 -9999 -9999 -9999 -9999 -9999 -9999 -9999 -9999 -9999 -9999 -9999 -9999 -9999 -9999 -9999 -9999 -9999 -9999 -9999 -9999 -9999 -9999 -9999 -9999 -9999 -9999 -9999 -9999 -9999 -9999 -9999 -9999 -9999 -9999 -9999 -9999 -9999 -9999 -9999 -9999 -9999 -9999 -9999 -9999 -9999 -9999 -9999 -9999 -9999 -9999 -9999 -9999 -9999 -9999 -9999 -9999 -9999 -9999 -9999 -9999 -9999 -9999 -9999 -9999 -9999 -9999 -9999 -9999 -9999 -9999 -9999 -9999 -9999 -9999 -9999 -9999 -9999 -9999 -9999 -9999 -9999 -9999 -9999 -9999 -9999
73.12399 71.39147 70.17343 69.47596 69.31578 69.38632 69.57478 69.78557 70.26004 71.58123 73.78638 76.91504 78.81937 79.91949 80.57584 81.22571 82.28085 84.1292 87.19434 92.0594 97.25578 101.3362 104.1775 105.0301 105.2118 105.8589 108.3318 111.8073 115.0809 116.704 116.2395 114.1384 111.8189 110.3772 109.7119 109.4112 109.1808 108.9738 109.0409 109.6658 110.8302 112.3561 114.0318 115.5722 117.3504 118.8521 120.1522 122.0018 124.0204 126.1536 128.6996 131.6539 134.7849 137.693 141.0984 144.6771 148.1698 151.7743 156.0474 160.5448 164.2427 165.5143 164.5439 161.3805 157.8582 154.1242 149.8633 145.6122 142.0462 139.0561 135.791 132.5429 129.0716 125.3971 121.8124 118.6658 115.6933 113.0135 110.155 107.4634 104.7857 101.9641 99.20567 96.17557 -9999 -9999 -9999 -9999 -9999 -9999 -9999 -9999 -9999 -9999 -9999 -9999 -9999 80.04934 81.33114 83.57079 85.14268 86.12964 87.39967 90.04807 92.70769 94.49493 96.68828 99.7254 101.9354 102.4632 101.7279 100.5925 100.176 100.5525 101.5243 103.0519 104.5276 106.1544 109.1082 111.8671 114.1964 116.9104 119.5046 122.47 124.3107 124.9889 125.2344 126.0947 127.5825 129.3261 131.7446 134.6629 136.9247 138.6281 140.1735 141.7174 142.971 144.2913 145.675 147.0012 148.8383 150.1907 151.2658 151.1415 150.3336 149.7103 149.4488 149.6524 150.2115 150.6286 150.2257 148.4308 145.0656 140.4893 135.8436 132.1482 130.1567 129.7931 130.0186 130.2568 129.8166 128.3107 125.8261 122.8583 119.9438 117.4809 115.7439 114.8796 114.5936 114.5796 114.7671 115.1057 115.4981 115.8267 115.87 115.7804 115.5412 114.897 113.5204 111.4048 109.2191 106.6591 104.0808 101.2182 98.56259 95.74938 92.88136 89.33361 85.4882 81.86711 78.85334 76.38191 74.42984 72.66026 70.69016 68.68773 -9999 -9999 -9999 58.83741 56.04036 53.66943 -9999 -9999 -9999 -9999 -9999 -9999 -9999 -9999 -9999 -9999 -9999 -9999 51.13322 53.07898 54.59232 55.8746 57.53032 59.13253 60.26126 60.62008 60.36668 59.84516 59.04561 58.03505 57.34314 56.84542 56.66676 56.87706 57.59721 58.77527 59.75866 60.55907 61.37368 62.90993 65.12241 67.81099 69.85179 70.10545 69.44199 67.86887 65.42338 62.59238 59.30649 55.79419 52.2551 49.03007 45.85839 42.97352 40.40004 -9999 -9999 -9999 -9999 -9999 -9999 -9999 -9999 -9999 -9999 -9999 -9999 -9999 -9999 -9999 -9999 -9999 -9999 -9999 -9999 -9999 -9999 -9999 -9999 -9999 -9999 -9999 -9999 -9999 -9999 -9999 -9999 -9999 -9999 -9999 -9999 -9999 -9999 -9999 -9999 -9999 -9999 -9999 -9999 -9999 -9999 -9999 -9999 -9999 -9999 -9999 -9999 -9999 -9999 -9999 -9999 -9999 -9999 -9999 -9999 -9999 -9999 -9999 -9999 -9999 -9999 -9999 -9999 -9999 -9999 -9999 -9999 -9999 -9999 -9999 -9999 -9999 -9999 -9999 -9999 -9999 -9999 -9999 -9999 -9999 -9999 -9999 -9999 -9999 -9999 -9999 -9999 -9999 -9999 -9999 -9999 -9999 -9999 -9999 -9999 -9999 -9999 -9999 -9999 -9999 -9999 -9999 -9999 -9999 -9999 -9999 -9999 -9999 -9999 -9999 -9999 -9999 -9999 -9999 -9999 -9999 -9999 -9999 -9999 -9999 -9999 -9999 -9999 -9999 -9999 -9999 -9999 -9999 -9999 -9999 -9999 -9999 -9999 -9999 -9999 -9999 -9999 -9999 -9999 -9999 -9999 -9999 -9999 -9999 -9999 -9999 -9999 -9999 -9999 -9999 -9999 -9999 -9999 -9999 -9999 -9999 -9999 -9999 -9999 -9999 -9999 -9999
77.12142 74.73417 72.72438 71.44422 71.05212 70.93242 70.87617 70.80948 71.10081 72.6154 75.01096 77.88152 79.81459 80.73106 81.15466 81.65037 82.70256 84.73282 88.11526 93.07455 98.09978 101.7476 104.179 105.3625 106.1977 107.1296 110.2757 115.0493 119.4692 121.8228 121.7285 119.7626 117.3647 115.7772 115.0204 114.725 114.589 114.5484 114.7753 115.5253 116.7306 118.074 119.3096 120.5437 122.1274 123.5194 124.7901 126.4692 128.6015 130.7875 133.3471 135.9729 138.8011 141.4032 144.4088 147.3866 150.3087 153.276 156.6289 160.4763 163.7452 164.828 163.9331 160.9731 157.6259 153.9553 149.7101 145.5511 142.1913 139.4183 136.4852 133.6045 130.1575 126.6981 123.4171 119.956 116.7697 113.787 110.4439 107.4616 104.5777 101.5443 98.7711 95.70378 -9999 -9999 -9999 -9999 -9999 -9999 -9999 -9999 -9999 -9999 -9999 -9999 -9999 79.04379 80.26648 81.85766 83.00283 84.0325 85.73277 88.36672 90.53153 92.49409 95.4623 98.6491 100.2555 100.0823 98.6309 96.95155 96.68167 97.83728 99.90285 102.1588 104.4972 106.6953 109.7351 112.9035 115.2589 117.7254 119.4848 121.6651 123.5449 124.1594 124.1405 124.5546 125.4109 126.9791 129.9515 132.9915 134.9606 136.4364 137.7018 139.1855 140.2351 141.4184 143.3659 145.4662 148.085 150.6481 153.3217 154.4407 154.5848 154.4785 154.4713 154.7945 155.3919 155.6765 155.0367 152.845 149.0691 144.2847 139.5575 136.0998 134.7358 134.9983 135.8679 136.6588 136.4312 134.8591 132.2831 129.1395 125.9978 123.4424 121.4606 120.5019 120.2183 120.2234 120.3949 120.7121 121.1607 121.6186 121.4784 121.1896 120.7789 119.9113 118.2449 116.1672 114.0049 111.4525 108.9021 105.9843 103.1642 100.4422 97.61736 94.13686 90.24975 86.39661 83.08455 80.01537 77.3212 75.21418 73.02378 70.79342 68.51582 66.09151 -9999 61.19398 58.54848 55.92973 54.19746 -9999 -9999 -9999 -9999 -9999 -9999 -9999 -9999 -9999 -9999 -9999 -9999 -9999 51.13116 52.17745 53.83784 55.33532 56.70226 57.36508 57.37155 56.85428 55.96377 55.28448 54.93757 -9999 -9999 -9999 55.04711 55.80621 56.97918 58.09986 59.28239 60.93774 63.45008 66.37629 69.32796 71.01277 71.97303 71.76659 70.06222 67.40562 63.90122 59.97504 55.97918 52.2579 48.55759 45.02358 41.70541 39.62633 -9999 -9999 -9999 -9999 -9999 -9999 -9999 -9999 -9999 -9999 -9999 -9999 -9999 -9999 -9999 -9999 -9999 -9999 -9999 -9999 -9999 -9999 -9999 -9999 -9999 -9999 -9999 -9999 -9999 -9999 -9999 -9999 -9999 -9999 -9999 -9999 -9999 -9999 -9999 -9999 -9999 -9999 -9999 -9999 -9999 -9999 -9999 -9999 -9999 -9999 -9999 -9999 -9999 -9999 -9999 -9999 -9999 -9999 -9999 -9999 -9999 -9999 -9999 -9999 -9999 -9999 -9999 -9999 -9999 -9999 -9999 -9999 -9999 -9999 -9999 -9999 -9999 -9999 -9999 -9999 -9999 -9999 -9999 -9999 -9999 -9999 -9999 -9999 -9999 -9999 -9999 -9999 -9999 -9999 -9999 -9999 -9999 -9999 -9999 -9999 -9999 -9999 -9999 -9999 -9999 -9999 -9999 -9999 -9999 -9999 -9999 -9999 -9999 -9999 -9999 -9999 -9999 -9999 -9999 -9999 -9999 -9999 -9999 -9999 -9999 -9999 -9999 -9999 -9999 -9999 -9999 -9999 -9999 -9999 -9999 -9999 -9999 -9999 -9999 -9999 -9999 -9999 -9999 -9999 -9999 -9999 -9999 -9999 -9999 -9999 -9999 -9999 -9999 -9999 -9999 -9999 -9999 -9999 -9999 -9999 -9999 -9999 -9999 -9999 -9999 -9999
81.10976 78.27386 75.91727 74.86205 74.64197 74.32514 73.5802 73.08518 72.98666 74.44376 76.66478 79.27645 81.1528 81.76866 81.95427 82.37351 83.52682 85.84286 89.70002 94.3516 98.73839 101.7607 103.764 105.0012 106.0993 107.9105 112.3583 118.1529 123.2804 126.0432 126.394 124.9657 122.8169 121.1833 120.3093 119.922 119.7541 119.7815 120.1735 121.1531 122.47 123.7187 124.6997 125.6245 126.864 128.2879 129.7374 131.6099 133.9128 136.2918 138.8973 141.2961 143.7402 145.8352 148.1926 150.4498 152.7952 154.9519 157.3693 160.1106 162.2181 162.9245 162.2087 159.9592 156.781 153.0747 148.7657 144.5808 141.2102 138.4823 135.7591 133.1297 130.0337 126.9562 124.0835 120.6754 117.5132 114.3268 110.741 107.5551 104.4052 101.0755 98.31958 95.5088 93.19621 -9999 -9999 87.12193 84.84953 -9999 -9999 -9999 -9999 -9999 -9999 -9999 -9999 -9999 79.94822 80.8095 81.43619 82.39749 84.30703 86.59685 88.81495 91.09557 94.05089 96.81894 98.07455 97.38221 95.4193 94.24662 94.93086 96.68822 99.19585 101.6059 104.2318 106.3922 108.9737 111.6551 113.6686 115.1378 116.4702 118.2778 120.3465 121.4882 122.5351 123.5496 124.6735 126.0853 128.8794 131.3521 133.2567 134.7028 135.713 137.3145 138.7304 140.2375 142.491 145.0524 148.0447 151.1728 154.5827 156.8327 157.8016 158.0909 158.1309 158.4469 159.1635 159.3712 158.5006 155.8073 151.9444 147.2032 142.5962 139.6238 138.939 140.0272 141.5779 142.8335 142.7123 140.9728 138.2386 134.8437 131.5122 128.8967 126.8332 125.8865 125.5856 125.4725 125.5152 125.7408 126.1728 126.7499 126.5559 126.1519 125.6589 124.6219 122.5963 120.6028 118.4626 115.9948 113.4721 110.5339 107.5443 104.8805 102.0195 98.75783 95.09752 91.2271 87.75653 84.47099 81.42694 78.96661 76.42947 74.05708 71.48848 68.96915 66.45769 64.00297 61.42057 58.75566 56.688 54.89408 53.65129 -9999 -9999 -9999 -9999 -9999 -9999 -9999 -9999 -9999 -9999 -9999 -9999 -9999 -9999 -9999 53.38819 54.20427 54.41406 53.97135 53.15982 52.62994 -9999 -9999 -9999 -9999 52.46867 53.22311 54.71774 56.28831 57.89118 59.78284 62.20364 65.25165 68.43449 71.09006 73.57246 74.69885 73.42775 70.74267 67.29463 63.37345 59.30839 55.44653 51.51098 47.72823 43.91164 41.13039 39.33647 -9999 -9999 -9999 -9999 -9999 -9999 -9999 -9999 -9999 -9999 -9999 -9999 -9999 -9999 -9999 -9999 -9999 -9999 -9999 -9999 -9999 -9999 -9999 -9999 -9999 -9999 -9999 -9999 -9999 -9999 -9999 -9999 -9999 -9999 -9999 -9999 -9999 -9999 -9999 -9999 -9999 -9999 -9999 -9999 -9999 -9999 -9999 -9999 -9999 -9999 -9999 -9999 -9999 -9999 -9999 -9999 -9999 -9999 -9999 -9999 -9999 -9999 -9999 -9999 -9999 -9999 -9999 -9999 -9999 -9999 -9999 -9999 -9999 -9999 -9999 -9999 -9999 -9999 -9999 -9999 -9999 -9999 -9999 -9999 -9999 -9999 -9999 -9999 -9999 -9999 -9999 -9999 -9999 -9999 -9999 -9999 -9999 -9999 -9999 -9999 -9999 -9999 -9999 -9999 -9999 -9999 -9999 -9999 -9999 -9999 -9999 -9999 -9999 -9999 -9999 -9999 -9999 -9999 -9999 -9999 -9999 -9999 -9999 -9999 -9999 -9999 -9999 -9999 -9999 -9999 -9999 -9999 -9999 -9999 -9999 -9999 -9999 -9999 -9999 -9999 -9999 -9999 -9999 -9999 -9999 -9999 -9999 -9999 -9999 -9999 -9999 -9999 -9999 -9999 -9999 -9999 -9999 -9999 -9999 -9999 -9999 -9999 -9999 -9999 -9999
84.37293 81.04266 78.73076 78.02299 78.1976 77.9669 77.11628 76.59796 76.70655 77.74288 79.26562 81.06905 82.67812 82.78267 82.78838 83.27366 84.65606 87.3511 91.43114 95.5612 99.22578 101.7109 103.4905 104.9569 106.6989 109.5909 115.128 121.7244 127.307 130.3241 131.0159 130.1056 128.2996 126.5485 125.4536 124.8116 124.4002 124.3168 124.7428 125.8398 127.326 128.8272 129.8502 130.5932 131.4655 132.7541 134.3895 136.4753 139.0857 141.7599 144.3778 146.4604 148.274 149.5336 150.8483 152.4709 154.3958 155.6384 157.175 159.1628 160.3085 160.6276 160.1322 158.3962 155.2912 151.372 146.9029 142.5431 139.0008 135.9121 133.3564 130.7242 128.3461 125.8115 123.6389 120.7103 117.845 114.7455 111.2111 108.0168 104.7699 101.5438 99.04562 96.6041 94.50571 92.00333 90.01294 87.63508 84.87351 -9999 -9999 -9999 -9999 -9999 -9999 -9999 -9999 -9999 79.58027 79.92574 80.09784 80.78841 82.65904 84.83868 87.16811 89.64825 92.00513 93.93221 94.43893 93.57732 91.96203 91.6451 93.59051 95.69518 98.13708 100.4135 103.0311 104.9219 106.778 109.0167 110.5961 111.765 113.3886 115.6047 117.9463 119.819 121.5633 123.4438 124.9155 126.3203 128.3291 130.2854 132.1514 133.7007 135.0379 136.7893 138.5694 140.4109 142.8806 145.604 148.783 152.1445 155.7971 158.7751 160.1965 160.695 160.4162 160.2966 160.7137 160.6953 159.7867 157.2812 153.7867 149.4029 145.2913 142.7091 142.9318 144.8736 146.8993 148.1998 147.976 146.0477 143.0295 139.4575 136.0478 133.449 131.4935 130.7047 130.3588 129.8623 129.526 129.4337 129.5374 129.7956 130.0171 129.6835 129.3246 128.4227 126.2824 124.3578 122.2622 119.8926 117.4179 114.7303 111.775 109.0784 106.1175 102.9249 99.51138 95.89533 92.53078 89.21091 86.04807 83.38093 80.70712 78.20679 75.66013 73.17784 70.4635 67.73344 65.10389 62.25879 59.53159 57.00259 55.22697 53.59389 -9999 -9999 -9999 -9999 -9999 -9999 -9999 -9999 -9999 -9999 -9999 -9999 -9999 -9999 50.27058 50.94772 51.34269 50.91636 50.40272 50.09916 -9999 -9999 -9999 -9999 50.182 51.00547 52.94072 55.05775 56.96644 58.8895 61.14033 64.29144 67.56134 70.89013 74.24648 76.43843 75.17747 72.47308 68.99773 64.95781 61.0815 57.72919 53.97361 50.11467 46.31626 43.01502 40.30079 -9999 -9999 -9999 -9999 -9999 -9999 -9999 -9999 -9999 -9999 -9999 -9999 -9999 -9999 -9999 -9999 -9999 -9999 -9999 -9999 -9999 -9999 -9999 -9999 -9999 -9999 -9999 -9999 -9999 -9999 -9999 -9999 -9999 -9999 -9999 -9999 -9999 -9999 -9999 -9999 -9999 -9999 -9999 -9999 -9999 -9999 -9999 -9999 -9999 -9999 -9999 -9999 -9999 -9999 -9999 -9999 -9999 -9999 -9999 -9999 -9999 -9999 -9999 -9999 -9999 -9999 -9999 -9999 -9999 -9999 -9999 -9999 -9999 -9999 -9999 -9999 -9999 -9999 -9999 -9999 -9999 -9999 -9999 -9999 -9999 -9999 -9999 -9999 -9999 -9999 -9999 -9999 -9999 -9999 -9999 -9999 -9999 -9999 -9999 -9999 -9999 -9999 -9999 -9999 -9999 -9999 -9999 -9999 -9999 -9999 -9999 -9999 -9999 -9999 -9999 -9999 -9999 -9999 -9999 -9999 -9999 -9999 -9999 -9999 -9999 -9999 -9999 -9999 -9999 -9999 -9999 -9999 -9999 -9999 -9999 -9999 -9999 -9999 -9999 -9999 -9999 -9999 -9999 -9999 -9999 -9999 -9999 -9999 -9999 -9999 -9999 -9999 -9999 -9999 -9999 -9999 -9999 -9999 -9999 -9999 -9999 -9999 -9999 -9999 -9999
86.72523 83.0961 80.40362 79.73677 79.67744 79.73671 79.62556 79.45687 79.45965 80.00397 80.89424 81.95773 82.87985 83.14276 83.45276 84.32124 86.11153 89.43676 93.32856 96.76687 99.66343 101.787 103.5917 105.5199 108.1521 112.2495 118.6813 125.7869 131.6306 134.8474 135.7834 135.1655 133.5481 131.6252 130.2201 129.1301 128.2102 127.8473 128.2999 129.6907 131.5423 133.5039 134.8098 135.5526 136.1553 137.1067 138.7159 140.8654 143.4944 146.4192 148.8602 150.4748 151.166 151.359 151.6034 152.3782 153.6703 154.3864 155.3783 157.1111 158.3387 158.7469 158.2257 156.4347 153.7618 149.9883 145.3952 140.6818 136.4175 132.8625 130.0936 127.4108 125.3864 123.5691 122.0084 120.0463 117.7561 115.1477 112.0781 109.0243 105.8965 103.267 101.2175 99.41497 97.38192 94.86322 92.07797 88.87611 85.20464 -9999 -9999 -9999 -9999 -9999 -9999 -9999 -9999 -9999 -9999 78.59662 79.13123 80.04221 81.33237 82.95827 85.07668 87.39628 89.01337 90.18874 90.36344 89.79713 89.5131 90.24907 92.34671 94.48026 96.26101 98.6125 100.9976 103.2388 105.2172 107.1152 108.5428 109.7207 111.3189 114.1469 116.6382 118.8165 121.022 123.8419 125.4509 126.7739 128.3281 130.026 131.856 133.5915 135.2454 137.3091 139.4601 141.6235 144.221 147.0199 150.2157 153.7314 157.0993 159.9409 161.7804 162.7008 161.8401 161.0441 160.6816 160.1178 159.1404 157.021 154.2554 150.6503 147.516 146.1867 147.0576 149.4165 151.3369 152.2325 151.6753 149.4462 146.1608 142.5639 139.157 136.4976 134.8376 134.2817 133.7921 132.4282 131.2816 130.5005 130.0213 129.9893 130.0502 130.0245 130.0175 129.7367 128.1055 126.4211 124.6366 122.5311 120.3626 118.1757 115.4772 112.7926 109.9186 106.6803 103.4476 100.1007 96.9624 93.66382 90.56376 87.80802 85.24442 82.73199 80.22432 77.69962 75.01379 72.26705 69.45834 66.29309 63.00045 60.09606 57.61918 55.26116 52.87727 -9999 -9999 -9999 -9999 -9999 -9999 -9999 -9999 -9999 -9999 -9999 -9999 -9999 -9999 48.5731 49.06931 -9999 48.3755 -9999 -9999 -9999 -9999 -9999 -9999 49.8966 51.93149 54.46335 56.47066 58.36743 60.48838 63.2947 66.39001 69.88731 73.09972 75.04742 74.43918 72.06207 68.56293 64.41499 60.61276 57.80433 54.71193 51.48023 48.22705 44.54812 41.14066 -9999 -9999 -9999 -9999 -9999 -9999 -9999 -9999 -9999 -9999 -9999 -9999 -9999 -9999 -9999 -9999 -9999 -9999 -9999 -9999 -9999 -9999 -9999 -9999 -9999 -9999 -9999 -9999 -9999 -9999 -9999 -9999 -9999 -9999 -9999 -9999 -9999 -9999 -9999 -9999 -9999 -9999 -9999 -9999 -9999 -9999 -9999 -9999 -9999 -9999 -9999 -9999 -9999 -9999 -9999 -9999 -9999 -9999 -9999 -9999 -9999 -9999 -9999 -9999 -9999 -9999 -9999 -9999 -9999 -9999 -9999 -9999 -9999 -9999 -9999 -9999 -9999 -9999 -9999 -9999 -9999 -9999 -9999 -9999 -9999 -9999 -9999 -9999 -9999 -9999 -9999 -9999 -9999 -9999 -9999 -9999 -9999 -9999 -9999 -9999 -9999 -9999 -9999 -9999 -9999 -9999 -9999 -9999 -9999 -9999 -9999 -9999 -9999 -9999 -9999 -9999 -9999 -9999 -9999 -9999 -9999 -9999 -9999 -9999 -9999 -9999 -9999 -9999 -9999 -9999 -9999 -9999 -9999 -9999 -9999 -9999 -9999 -9999 -9999 -9999 -9999 -9999 -9999 -9999 -9999 -9999 -9999 -9999 -9999 -9999 -9999 -9999 -9999 -9999 -9999 -9999 -9999 -9999 -9999 -9999 -9999 -9999 -9999 -9999 -9999
88.94476 84.73199 81.2448 80.02335 80.07846 80.48864 80.85155 81.08513 81.27824 81.57881 81.97159 82.45551 82.9542 83.40546 84.22501 85.75891 88.1123 91.75689 95.20099 97.98586 100.1599 102.1012 104.1214 106.6451 110.2162 115.4898 122.6168 129.9294 135.7823 139.1074 140.2234 139.6669 137.9389 135.9639 134.2415 132.6208 131.2791 130.6274 131.0538 132.8679 135.4608 138.0412 139.6536 140.4208 140.7986 141.3818 142.5927 144.2787 146.3116 149.0487 151.0191 152.3868 151.9364 151.1366 150.3147 150.0782 150.4841 151.1703 152.438 154.6342 156.3142 157.0503 156.8422 155.3298 152.6836 148.9129 144.1559 139.2058 134.6878 130.6726 127.4537 124.5652 122.3827 120.7373 119.667 118.505 116.8886 115.2237 113.2182 110.1181 107.2474 105.1989 103.9883 102.5973 100.7503 98.08902 94.51743 90.33587 85.75455 -9999 -9999 -9999 -9999 -9999 -9999 -9999 -9999 -9999 -9999 -9999 78.05325 79.31194 79.96293 80.81168 82.37746 83.95248 84.98729 85.83121 86.20451 86.5136 87.87822 89.78382 91.97625 93.90059 95.40103 97.64967 99.99921 102.3827 104.6244 106.4268 107.9032 109.2253 110.9044 113.8846 116.3864 118.5681 120.8988 124.0289 125.7688 127.0522 128.4313 130.0889 132.0897 134.2021 136.2549 138.4659 140.6151 143.0204 145.6196 148.5661 151.6961 154.9347 157.9229 160.2578 161.7383 162.0277 161.0072 159.7517 158.8673 157.7831 156.469 154.9681 153.2973 151.0744 149.6369 149.4012 150.6426 153.0866 154.5814 154.9884 154.1789 151.5898 148.2098 144.3708 140.6262 137.8325 136.0343 135.3596 134.5776 132.5562 130.7992 129.4344 128.4698 128.1019 128.0623 128.1473 128.2716 128.1759 127.3853 126.3517 125.0824 123.5176 121.8942 120.1947 118.1578 115.7529 113.1662 109.9685 106.6208 103.4348 100.406 97.2925 94.59187 91.89381 89.53459 86.98784 84.44027 81.81892 79.11703 76.39731 73.61791 70.49734 66.9249 63.4702 60.33536 57.30621 54.31904 51.34271 48.56868 -9999 -9999 -9999 -9999 -9999 -9999 -9999 -9999 -9999 -9999 -9999 -9999 -9999 -9999 -9999 -9999 -9999 -9999 -9999 -9999 -9999 -9999 -9999 51.01452 53.8568 55.97641 57.87143 59.91085 62.2486 65.05998 68.17351 70.91705 72.56242 72.2714 70.12831 66.41592 62.10651 58.20604 55.54036 53.41346 51.07343 48.5134 44.94999 41.50727 38.83046 36.38966 -9999 -9999 -9999 -9999 -9999 -9999 -9999 -9999 -9999 -9999 -9999 -9999 -9999 -9999 -9999 -9999 -9999 -9999 -9999 -9999 -9999 -9999 -9999 -9999 -9999 -9999 -9999 -9999 -9999 -9999 -9999 -9999 -9999 -9999 -9999 -9999 -9999 -9999 -9999 -9999 -9999 -9999 -9999 -9999 -9999 -9999 -9999 -9999 -9999 -9999 -9999 -9999 -9999 -9999 -9999 -9999 -9999 -9999 -9999 -9999 -9999 -9999 -9999 -9999 -9999 -9999 -9999 -9999 -9999 -9999 -9999 -9999 -9999 -9999 -9999 -9999 -9999 -9999 -9999 -9999 -9999 -9999 -9999 -9999 -9999 -9999 -9999 -9999 -9999 -9999 -9999 -9999 -9999 -9999 -9999 -9999 -9999 -9999 -9999 -9999 -9999 -9999 -9999 -9999 -9999 -9999 -9999 -9999 -9999 -9999 -9999 -9999 -9999 -9999 -9999 -9999 -9999 -9999 -9999 -9999 -9999 -9999 -9999 -9999 -9999 -9999 -9999 -9999 -9999 -9999 -9999 -9999 -9999 -9999 -9999 -9999 -9999 -9999 -9999 -9999 -9999 -9999 -9999 -9999 -9999 -9999 -9999 -9999 -9999 -9999 -9999 -9999 -9999 -9999 -9999 -9999 -9999 -9999 -9999 -9999 -9999 -9999 -9999
90.98879 86.50268 82.58016 80.75764 80.77286 81.32751 81.94451 82.46873 82.85698 83.02148 83.0159 83.07113 83.32955 83.95842 85.36459 87.83006 91.00661 94.55561 97.34091 99.36964 100.9265 102.7484 105.0841 108.2519 112.6747 119.0704 126.5632 133.6314 139.0307 142.2907 143.6151 142.9885 141.0048 139.0649 137.0303 135.2486 134.0231 133.1337 133.4513 135.3405 138.7209 142.1415 144.1243 144.5502 144.5381 144.6029 144.9316 145.6707 146.9533 148.7797 149.7895 150.2539 149.795 148.9028 147.6654 146.7368 146.8052 147.8794 149.6969 152.175 154.2991 155.3369 155.6165 154.4353 151.5223 147.5227 142.5713 137.5163 133.1024 129.1947 125.4774 122.0283 119.5039 117.6831 116.4497 115.2775 114.3303 113.5082 112.1498 109.5513 107.2218 105.8959 105.3685 104.83 103.5564 100.6331 96.72347 92.05588 86.82147 81.74627 -9999 -9999 -9999 -9999 -9999 -9999 -9999 -9999 -9999 -9999 76.62178 77.68404 -9999 -9999 -9999 -9999 81.5414 82.85646 84.01764 85.33334 87.66047 90.26041 92.68027 94.54422 95.79036 97.86288 99.99618 102.3932 104.7972 106.9043 108.7546 110.4161 112.1359 114.7894 117.1641 118.9823 120.9485 124.0047 125.6692 126.8916 128.2404 130.0564 132.3642 135.0981 137.9888 140.02 142.0948 144.4943 147.0936 150.0909 153.3372 155.8697 158.3502 160.1084 160.7528 160.0644 158.411 156.4035 155.1146 154.0623 152.8383 151.4857 150.3555 149.4604 149.1919 150.136 152.0926 154.5 155.6901 155.9876 155.3017 153.049 149.5025 145.2765 141.2032 138.1109 135.747 134.7399 133.2497 130.5965 128.4968 126.5347 125.3855 124.8105 124.64 124.6586 124.7693 124.8166 124.6272 124.2968 123.7475 122.7486 121.8852 121.0234 119.7734 117.7982 115.3769 112.5009 109.2922 106.1245 103.3299 100.4544 97.99933 95.37545 93.01289 90.22976 87.45808 84.55559 81.69283 79.05846 76.28652 73.41773 69.90286 66.33221 62.69831 59.05006 55.40826 52.22252 49.33164 -9999 -9999 -9999 -9999 -9999 -9999 -9999 -9999 -9999 -9999 -9999 -9999 -9999 -9999 -9999 -9999 -9999 -9999 -9999 -9999 -9999 -9999 -9999 50.2549 52.90174 55.11328 56.88192 58.72831 60.60194 63.11613 65.85431 68.26098 69.49577 69.38956 67.65688 63.98872 59.64793 55.58918 52.47452 50.44821 48.89798 46.98219 43.85291 40.6689 37.966 35.62032 -9999 -9999 -9999 -9999 -9999 -9999 -9999 -9999 -9999 -9999 -9999 -9999 -9999 -9999 -9999 -9999 -9999 -9999 -9999 -9999 -9999 -9999 -9999 -9999 -9999 -9999 -9999 -9999 -9999 -9999 -9999 -9999 -9999 -9999 -9999 -9999 -9999 -9999 -9999 -9999 -9999 -9999 -9999 -9999 -9999 -9999 -9999 -9999 -9999 -9999 -9999 -9999 -9999 -9999 -9999 -9999 -9999 -9999 -9999 -9999 -9999 -9999 -9999 -9999 -9999 -9999 -9999 -9999 -9999 -9999 -9999 -9999 -9999 -9999 -9999 -9999 -9999 -9999 -9999 -9999 -9999 -9999 -9999 -9999 -9999 -9999 -9999 -9999 -9999 -9999 -9999 -9999 -9999 -9999 -9999 -9999 -9999 -9999 -9999 -9999 -9999 -9999 -9999 -9999 -9999 -9999 -9999 -9999 -9999 -9999 -9999 -9999 -9999 -9999 -9999 -9999 -9999 -9999 -9999 -9999 -9999 -9999 -9999 -9999 -9999 -9999 -9999 -9999 -9999 -9999 -9999 -9999 -9999 -9999 -9999 -9999 -9999 -9999 -9999 -9999 -9999 -9999 -9999 -9999 -9999 -9999 -9999 -9999 -9999 -9999 -9999 -9999 -9999 -9999 -9999 -9999 -9999 -9999 -9999 -9999 -9999 -9999 -9999
93.12453 89.04275 85.33019 83.19727 82.71861 83.0656 83.66651 84.30058 84.84381 84.88963 84.50668 84.23315 84.33444 85.07018 86.98225 90.41717 94.21297 97.42335 99.32378 100.3307 101.6358 103.627 106.4507 110.3913 115.7224 122.8237 130.283 136.6755 141.1308 143.9239 145.297 144.5211 142.237 140.1043 138.1149 136.4075 135.0925 134.3624 134.6656 136.4716 140.2971 144.2668 146.589 146.3333 145.7437 145.1407 144.6195 144.4378 144.7394 145.4129 145.818 145.9065 145.5603 144.9121 144.0345 143.2801 143.3826 144.5794 146.7142 149.5685 151.9671 153.3632 153.8985 152.6967 149.4908 145.2632 140.5436 135.8294 131.6296 128.0139 124.3879 120.4896 117.0408 114.66 112.9581 111.158 110.0594 109.3641 108.3201 106.5551 105.0815 104.6281 104.8432 104.9832 104.4519 102.077 98.57112 93.76009 88.11119 82.53662 -9999 -9999 -9999 -9999 -9999 -9999 -9999 -9999 -9999 -9999 -9999 -9999 -9999 -9999 -9999 -9999 -9999 81.77681 83.66359 85.8229 88.78105 91.81481 94.22858 95.91656 97.39565 99.22477 100.9566 103.3755 105.9715 108.5923 111.0938 113.4697 115.3195 117.1956 119.0924 120.033 121.0982 123.6217 124.9632 126.0659 127.3675 129.3904 131.9149 135.0664 138.3698 140.684 142.878 145.2282 147.8718 150.7954 154.0086 156.2161 158.1461 159.3949 159.028 157.2592 154.6537 152.1124 150.4993 149.5033 148.6217 147.5686 146.6539 146.4604 147.3268 149.0755 151.2784 153.5359 154.6946 155.2562 155.3659 153.919 150.2883 145.8571 141.7047 138.4325 135.5693 133.5305 130.9409 127.7903 125.4751 123.4504 122.0802 121.0468 120.5452 120.2751 120.2033 120.2045 120.1964 120.1658 120.0937 119.995 120.1816 120.4019 120.0158 118.6998 116.7422 114.2318 111.1161 108.1003 105.1852 102.489 99.95902 97.43388 94.83762 91.93688 88.93829 85.51632 82.33072 79.58465 76.92245 74.36823 71.18883 67.89577 64.09429 59.98811 56.04066 52.83802 49.85958 47.08128 -9999 -9999 -9999 -9999 -9999 -9999 -9999 -9999 -9999 -9999 -9999 -9999 -9999 -9999 -9999 -9999 -9999 -9999 -9999 -9999 -9999 -9999 49.30897 51.74258 53.84782 55.06816 56.33352 58.18578 60.45413 62.84421 64.5344 65.48548 65.69276 64.58636 61.57894 57.30771 53.25005 49.89064 47.29 45.62841 43.89227 41.49974 39.35019 37.10106 35.19312 -9999 -9999 -9999 -9999 -9999 -9999 -9999 -9999 -9999 -9999 -9999 -9999 -9999 -9999 -9999 -9999 -9999 -9999 -9999 -9999 -9999 -9999 -9999 -9999 -9999 -9999 -9999 -9999 -9999 -9999 -9999 -9999 -9999 -9999 -9999 -9999 -9999 -9999 -9999 -9999 -9999 -9999 -9999 -9999 -9999 -9999 -9999 -9999 -9999 -9999 -9999 -9999 -9999 -9999 -9999 -9999 -9999 -9999 -9999 -9999 -9999 -9999 -9999 -9999 -9999 -9999 -9999 -9999 -9999 -9999 -9999 -9999 -9999 -9999 -9999 -9999 -9999 -9999 -9999 -9999 -9999 -9999 -9999 -9999 -9999 -9999 -9999 -9999 -9999 -9999 -9999 -9999 -9999 -9999 -9999 -9999 -9999 -9999 -9999 -9999 -9999 -9999 -9999 -9999 -9999 -9999 -9999 -9999 -9999 -9999 -9999 -9999 -9999 -9999 -9999 -9999 -9999 -9999 -9999 -9999 -9999 -9999 -9999 -9999 -9999 -9999 -9999 -9999 -9999 -9999 -9999 -9999 -9999 -9999 -9999 -9999 -9999 -9999 -9999 -9999 -9999 -9999 -9999 -9999 -9999 -9999 -9999 -9999 -9999 -9999 -9999 -9999 -9999 -9999 -9999 -9999 -9999 -9999 -9999 -9999 -9999 -9999 -9999
95.31463 91.85102 88.69859 86.54472 85.84999 86.03158 86.48766 87.03683 87.62451 87.5506 86.85052 86.36504 86.35272 87.14057 89.57212 93.34759 97.0116 99.26962 100.5319 101.3469 102.6098 104.7954 108.1578 112.9404 119.1792 126.6187 133.561 138.7115 141.7305 143.2719 143.8401 142.7804 140.6188 138.9123 137.3102 136.0315 135.0173 134.4196 134.8212 136.6839 140.5829 144.4219 146.1159 145.4982 144.5637 143.2635 141.5574 140.6244 140.3744 140.5089 140.6398 140.6299 140.4168 140.0416 139.5832 139.2874 139.6636 141.0909 143.8086 146.8969 149.4534 150.7072 150.8465 149.4308 146.2608 142.1786 137.9884 133.8805 130.2419 127.0247 123.7439 119.7475 115.6347 112.1747 109.7293 107.2255 105.5016 104.5273 103.4618 102.1521 101.3569 101.4522 102.2786 102.9363 102.968 101.7533 99.21254 94.8456 89.36905 83.65766 -9999 -9999 -9999 -9999 -9999 -9999 -9999 -9999 -9999 -9999 -9999 -9999 -9999 -9999 -9999 -9999 -9999 82.05925 84.65617 87.54696 90.73395 93.72974 95.84111 97.51408 99.2145 100.9747 102.9353 105.4395 108.4243 111.37 114.5425 117.3574 119.4316 120.7755 121.6374 121.5006 121.4946 122.4864 123.4658 124.4933 125.6098 127.6588 130.4081 133.8378 137.3199 140.2555 142.8227 145.2893 147.8678 150.5759 153.3912 155.1925 156.5766 157.0207 156.0358 154.0664 151.2032 148.1706 146.0124 144.7836 144.0874 143.5131 143.0399 143.2564 144.3999 146.1918 148.4683 150.3792 151.8436 153.2844 154.2416 153.5822 150.3989 146.2366 142.4186 139.1211 135.9061 133.2224 130.0002 126.4525 123.6596 121.1369 119.5072 117.9928 116.9856 116.1144 115.6153 115.3144 115.184 115.1637 115.3241 115.8351 116.9753 118.3525 118.9697 118.3796 117.0796 115.0426 112.3798 109.4552 106.3547 103.6807 100.9218 98.32011 95.32065 92.06656 88.69999 84.90865 81.24541 78.25166 75.65314 73.4063 70.52023 67.44232 64.03802 60.09448 56.36449 53.43562 50.46529 47.66169 -9999 -9999 -9999 -9999 -9999 -9999 -9999 -9999 -9999 -9999 -9999 -9999 -9999 -9999 -9999 -9999 -9999 -9999 -9999 -9999 -9999 -9999 47.69006 49.96751 51.61248 52.60248 53.67991 55.27183 57.15672 58.88896 60.07996 61.08332 61.9942 61.6655 59.43428 55.52943 51.47126 48.13056 45.3691 43.2261 41.20511 39.61212 38.14263 -9999 -9999 -9999 -9999 -9999 -9999 -9999 -9999 -9999 -9999 -9999 -9999 -9999 -9999 -9999 -9999 -9999 -9999 -9999 -9999 -9999 -9999 -9999 -9999 -9999 -9999 -9999 -9999 -9999 -9999 -9999 -9999 -9999 -9999 -9999 -9999 -9999 -9999 -9999 -9999 -9999 -9999 -9999 -9999 -9999 -9999 -9999 -9999 -9999 -9999 -9999 -9999 -9999 -9999 -9999 -9999 -9999 -9999 -9999 -9999 -9999 -9999 -9999 -9999 -9999 -9999 -9999 -9999 -9999 -9999 -9999 -9999 -9999 -9999 -9999 -9999 -9999 -9999 -9999 -9999 -9999 -9999 -9999 -9999 -9999 -9999 -9999 -9999 -9999 -9999 -9999 -9999 -9999 -9999 -9999 -9999 -9999 -9999 -9999 -9999 -9999 -9999 -9999 -9999 -9999 -9999 -9999 -9999 -9999 -9999 -9999 -9999 -9999 -9999 -9999 -9999 -9999 -9999 -9999 -9999 -9999 -9999 -9999 -9999 -9999 -9999 -9999 -9999 -9999 -9999 -9999 -9999 -9999 -9999 -9999 -9999 -9999 -9999 -9999 -9999 -9999 -9999 -9999 -9999 -9999 -9999 -9999 -9999 -9999 -9999 -9999 -9999 -9999 -9999 -9999 -9999 -9999 -9999 -9999 -9999 -9999 -9999 -9999 -9999 -9999
98.07407 95.37816 92.76794 90.92983 90.31709 90.54749 90.91605 91.24477 91.44253 91.20435 90.60537 90.03399 89.6728 90.6188 92.91504 96.04434 98.93082 100.459 101.3238 102.1332 103.5745 106.1257 110.1022 115.7923 122.9787 130.4282 136.5073 139.9539 141.0966 140.7142 139.8498 138.2085 136.4076 135.2314 134.4353 133.8998 133.4577 133.1115 133.9396 136.2427 140.1273 143.6562 144.8566 143.8716 141.895 139.6878 137.2784 135.7888 135.2035 135.1232 135.1751 135.1788 135.0803 134.9172 134.7971 134.9234 135.753 137.5783 140.7235 144.1983 146.9729 148.2681 147.9526 145.8809 142.3702 138.3031 134.4722 130.9531 128.1371 125.4943 122.7622 119.2103 115.1087 111.2213 108.2198 105.1658 102.342 100.8358 99.64783 98.42471 97.77918 97.9446 98.74797 99.52827 100.0611 99.98481 98.65395 95.13268 90.19289 84.73055 79.63765 -9999 -9999 -9999 -9999 -9999 -9999 -9999 -9999 -9999 -9999 -9999 -9999 -9999 76.66371 78.26135 80.23833 83.01346 86.23256 89.75275 93.12518 95.68759 97.54713 99.13632 100.8781 103.0344 105.4002 108.07 111.2361 114.5617 118.1527 121.2458 123.3191 124.2119 124.1048 122.6031 121.3248 121.1239 121.6063 122.3705 123.5944 125.585 128.4068 131.8732 135.7504 139.2943 142.1029 144.7164 147.0373 149.3677 151.3212 152.9776 154.0385 154.0244 152.8537 150.9743 148.6313 145.5475 142.5181 140.5534 139.6334 139.2493 139.178 139.6335 140.8276 142.6631 144.732 146.6468 148.5782 150.3144 151.462 151.6632 149.7253 146.199 142.7647 139.6276 136.5562 133.7807 130.3459 126.734 123.4968 120.4356 118.0762 115.8816 114.4272 112.9445 111.8292 110.9627 110.4799 110.2088 110.3291 111.0302 112.5046 114.4507 115.9165 116.7037 116.5198 115.1938 112.9824 110.1738 107.2033 104.4164 101.3935 98.43094 94.83911 90.91886 87.01623 83.04625 79.17344 75.90792 73.28598 70.97988 68.58175 65.72569 62.82128 59.43047 56.46902 54.15503 51.39501 48.6031 -9999 -9999 -9999 -9999 -9999 -9999 -9999 -9999 -9999 -9999 -9999 -9999 -9999 -9999 -9999 -9999 -9999 -9999 -9999 -9999 -9999 -9999 46.04065 47.99837 49.02959 49.66807 50.6099 52.0535 53.53255 54.59374 55.48374 56.74995 58.58599 59.12506 57.61435 54.1622 50.42907 47.27938 44.63444 42.23794 40.13531 -9999 -9999 -9999 -9999 -9999 -9999 -9999 -9999 -9999 -9999 -9999 -9999 -9999 -9999 -9999 -9999 -9999 -9999 -9999 -9999 -9999 -9999 -9999 -9999 -9999 -9999 -9999 -9999 -9999 -9999 -9999 -9999 -9999 -9999 -9999 -9999 -9999 -9999 -9999 -9999 -9999 -9999 -9999 -9999 -9999 -9999 -9999 -9999 -9999 -9999 -9999 -9999 -9999 -9999 -9999 -9999 -9999 -9999 -9999 -9999 -9999 -9999 -9999 -9999 -9999 -9999 -9999 -9999 -9999 -9999 -9999 -9999 -9999 -9999 -9999 -9999 -9999 -9999 -9999 -9999 -9999 -9999 -9999 -9999 -9999 -9999 -9999 -9999 -9999 -9999 -9999 -9999 -9999 -9999 -9999 -9999 -9999 -9999 -9999 -9999 -9999 -9999 -9999 -9999 -9999 -9999 -9999 -9999 -9999 -9999 -9999 -9999 -9999 -9999 -9999 -9999 -9999 -9999 -9999 -9999 -9999 -9999 -9999 -9999 -9999 -9999 -9999 -9999 -9999 -9999 -9999 -9999 -9999 -9999 -9999 -9999 -9999 -9999 -9999 -9999 -9999 -9999 -9999 -9999 -9999 -9999 -9999 -9999 -9999 -9999 -9999 -9999 -9999 -9999 -9999 -9999 -9999 -9999 -9999 -9999 -9999 -9999 -9999 -9999 -9999 -9999 -9999
101.0525 99.15668 97.1375 95.74638 95.26334 95.34071 95.46013 95.38696 95.02341 94.31932 93.58121 93.16859 93.37668 94.37361 96.30879 98.62868 100.302 101.225 101.8542 102.7711 104.5709 107.6881 112.3948 119.1658 126.9314 134.0991 139.1178 140.904 140.1086 137.7038 135.2198 132.7411 131.0126 130.1505 129.7949 129.6681 129.6832 130.1134 131.8168 134.9077 138.858 141.9891 143.0806 141.982 139.4268 136.1549 133.0798 130.9893 130.1155 129.9335 129.9813 130.0252 130.0092 130.0055 130.2048 130.8781 132.3622 134.6654 137.9651 141.5636 144.6663 145.9953 145.3746 142.8084 138.8836 134.5934 130.6135 127.2975 124.7907 122.8008 120.5702 118.1558 114.8927 111.3761 108.5101 105.4304 102.0225 99.63621 97.60462 95.67047 94.45887 94.13331 94.40491 95.09498 96.06813 96.98357 96.71269 94.48888 90.35433 85.29736 80.20798 -9999 -9999 -9999 -9999 -9999 -9999 -9999 -9999 -9999 -9999 -9999 -9999 -9999 76.6641 78.67263 81.02612 84.39626 88.26312 92.06061 95.42345 97.86156 99.59483 101.2387 103.2761 105.7005 108.4162 111.0965 114.2197 117.4292 121.0279 124.0379 125.5897 125.8185 124.8615 122.6478 120.5726 119.9364 119.9407 120.3936 121.7272 123.8179 126.6005 130.3257 134.2541 137.8626 140.6235 143.2716 145.316 147.3693 149.0443 150.1902 150.6472 150.3411 149.3926 148.075 146.4825 144.0476 140.5893 137.4995 135.9298 135.3237 135.3477 136.003 137.421 139.2307 141.1754 143.3036 145.4401 147.4082 148.8427 149.5953 148.6422 145.7285 142.5039 139.5312 136.6567 134.1551 131.2017 128.0867 124.4727 120.9444 118.0288 115.1949 112.8656 110.6697 108.962 107.6329 106.7463 106.0078 105.9082 106.5917 108.202 110.24 112.4571 114.4489 115.4959 115.0189 113.0491 110.2362 107.1563 104.1287 100.7371 97.27452 93.35174 88.95874 84.50501 80.22009 76.38082 73.29773 70.68472 68.40903 66.01657 63.38623 60.60564 57.77093 55.79859 54.36286 52.15399 49.55629 46.66237 -9999 -9999 -9999 -9999 -9999 -9999 -9999 -9999 -9999 -9999 -9999 -9999 -9999 -9999 -9999 -9999 -9999 -9999 -9999 -9999 -9999 -9999 45.41861 45.89195 46.41631 47.49556 48.77111 49.81569 50.58221 51.49184 53.06396 55.5384 56.5946 55.46302 52.63432 49.69868 47.03475 44.70228 42.45791 -9999 -9999 -9999 37.84657 36.60621 34.95234 -9999 -9999 -9999 -9999 -9999 -9999 -9999 -9999 -9999 -9999 -9999 -9999 -9999 -9999 -9999 -9999 -9999 -9999 -9999 -9999 -9999 -9999 -9999 -9999 -9999 -9999 -9999 -9999 -9999 -9999 -9999 -9999 -9999 -9999 -9999 -9999 -9999 -9999 -9999 -9999 -9999 -9999 -9999 -9999 -9999 -9999 -9999 -9999 -9999 -9999 -9999 -9999 -9999 -9999 -9999 -9999 -9999 -9999 -9999 -9999 -9999 -9999 -9999 -9999 -9999 -9999 -9999 -9999 -9999 -9999 -9999 -9999 -9999 -9999 -9999 -9999 -9999 -9999 -9999 -9999 -9999 -9999 -9999 -9999 -9999 -9999 -9999 -9999 -9999 -9999 -9999 -9999 -9999 -9999 -9999 -9999 -9999 -9999 -9999 -9999 -9999 -9999 -9999 -9999 -9999 -9999 -9999 -9999 -9999 -9999 -9999 -9999 -9999 -9999 -9999 -9999 -9999 -9999 -9999 -9999 -9999 -9999 -9999 -9999 -9999 -9999 -9999 -9999 -9999 -9999 -9999 -9999 -9999 -9999 -9999 -9999 -9999 -9999 -9999 -9999 -9999 -9999 -9999 -9999 -9999 -9999 -9999 -9999 -9999 -9999 -9999 -9999 -9999 -9999 -9999 -9999 -9999 -9999 -9999 -9999 -9999 -9999
103.329 102.4056 101.2309 100.5524 100.3634 100.3672 100.1827 99.58708 98.55006 97.19598 96.12981 95.69066 96.07775 97.26451 99.03771 100.5243 101.4334 101.8821 102.3598 103.4639 105.7841 109.7469 115.5235 123.0553 130.929 137.6033 141.6287 141.8236 139.4597 135.4733 131.2241 127.7047 125.598 124.7029 124.471 124.5386 124.9079 126.0286 128.6474 132.576 136.8945 140.2369 141.5168 140.3708 137.3231 133.2747 129.4314 126.8277 125.6884 125.4195 125.4694 125.5447 125.5784 125.6783 126.1161 127.2854 129.2288 131.8106 135.3011 139.0566 142.2619 143.5376 142.7846 139.9246 135.5592 131.0198 126.8713 123.4125 120.7781 119.0405 117.483 116.1491 114.4286 111.968 109.7955 107.3251 103.6799 100.2049 97.2447 94.40178 91.60285 90.43002 89.95679 90.41555 91.68115 93.31149 93.9233 92.87789 89.71145 85.24976 80.37194 -9999 -9999 -9999 -9999 -9999 -9999 -9999 -9999 -9999 -9999 -9999 -9999 74.81458 76.96236 79.3996 82.07466 85.63963 89.96228 94.28859 97.99418 100.4665 102.2159 104.2057 106.2701 108.8239 111.5598 114.3108 117.2885 120.3575 123.669 126.0287 126.823 126.2644 124.6439 122.0615 119.9065 118.8323 118.5795 119.0283 120.345 122.5275 125.4735 129.021 132.5318 135.821 138.573 140.9455 143.088 145.1437 146.7164 147.4594 147.3862 146.6201 145.6391 144.9882 144.4436 142.9548 139.7315 136.136 133.7721 132.5457 132.4237 133.2008 134.6193 136.3113 138.4107 140.5692 142.7559 144.6743 146.0078 146.9698 146.595 144.5792 141.4785 138.6347 135.9062 133.7207 131.4359 128.8488 125.3409 121.9169 118.7586 115.3226 112.2947 109.4574 106.7189 105.1341 104.0766 102.9804 102.6101 103.0735 104.4034 106.3285 108.8754 111.695 113.9668 114.2659 112.3779 109.5327 106.1805 102.893 99.3694 95.46979 91.1261 86.4421 81.77708 77.52383 74.08813 71.12154 68.67918 66.4195 64.1362 61.48045 58.89257 56.16545 55.02382 54.34226 53.04929 51.06156 48.64427 -9999 -9999 -9999 -9999 -9999 -9999 -9999 -9999 -9999 -9999 -9999 -9999 -9999 -9999 -9999 -9999 -9999 -9999 -9999 -9999 -9999 -9999 43.42485 43.69202 44.08842 44.82595 45.67005 46.71239 47.74487 49.2575 51.39682 54.36351 55.48106 54.54478 51.70212 49.46027 47.46948 45.61997 43.93435 41.81442 40.71651 40.1133 39.57273 38.25748 35.669 -9999 -9999 -9999 -9999 -9999 -9999 -9999 -9999 -9999 -9999 -9999 -9999 -9999 -9999 -9999 -9999 -9999 -9999 -9999 -9999 -9999 -9999 -9999 -9999 -9999 -9999 -9999 -9999 -9999 -9999 -9999 -9999 -9999 -9999 -9999 -9999 -9999 -9999 -9999 -9999 -9999 -9999 -9999 -9999 -9999 -9999 -9999 -9999 -9999 -9999 -9999 -9999 -9999 -9999 -9999 -9999 -9999 -9999 -9999 -9999 -9999 -9999 -9999 -9999 -9999 -9999 -9999 -9999 -9999 -9999 -9999 -9999 -9999 -9999 -9999 -9999 -9999 -9999 -9999 -9999 -9999 -9999 -9999 -9999 -9999 -9999 -9999 -9999 -9999 -9999 -9999 -9999 -9999 -9999 -9999 -9999 -9999 -9999 -9999 -9999 -9999 -9999 -9999 -9999 -9999 -9999 -9999 -9999 -9999 -9999 -9999 -9999 -9999 -9999 -9999 -9999 -9999 -9999 -9999 -9999 -9999 -9999 -9999 -9999 -9999 -9999 -9999 -9999 -9999 -9999 -9999 -9999 -9999 -9999 -9999 -9999 -9999 -9999 -9999 -9999 -9999 -9999 -9999 -9999 -9999 -9999 -9999 -9999 -9999 -9999 -9999 -9999 -9999 -9999 -9999 -9999 -9999 -9999 -9999 -9999 -9999 -9999
104.7782 104.9779 104.9174 105.1011 105.4215 105.571 105.145 103.905 101.9908 100.0874 98.65513 98.05666 98.4565 99.70695 101.3325 102.4146 102.7872 102.8109 103.1513 104.4492 107.3366 112.2329 119.0973 126.9774 134.444 140.2393 143.5094 142.0539 138.5086 133.6632 128.4163 123.8097 120.9348 119.6744 119.3198 119.4383 120.0759 121.7781 125.2474 129.9077 134.8194 138.7705 140.4725 139.5331 136.0202 131.4101 126.9779 123.8905 122.3575 121.9145 121.9286 122.0179 122.0872 122.2728 122.8862 124.267 126.3834 129.295 132.6041 135.9552 138.7628 139.8449 139.2164 136.6661 132.4742 128.1356 124.1186 120.4176 117.2979 115.3653 114.0596 113.5471 113.0729 111.6394 110.3659 108.5186 104.9471 101.1607 97.82334 94.38781 90.86316 88.30875 86.54317 86.39841 87.46184 88.9708 89.89627 89.66472 87.82826 84.32156 79.92606 75.67092 -9999 -9999 -9999 -9999 -9999 -9999 -9999 -9999 -9999 -9999 -9999 74.73109 77.13725 79.76814 82.75198 86.63461 91.40559 96.17892 100.2792 103.3544 105.4765 107.4561 109.5509 111.9123 114.7485 117.4324 120.3697 123.0745 125.8845 127.6385 127.3718 125.8069 123.4814 120.6177 118.6064 117.5736 117.3498 117.9329 119.4877 121.6696 124.6335 127.8155 131.0265 134.235 136.8436 139.1446 141.1327 143.2241 144.6394 144.9292 144.3361 143.04 141.9054 141.6093 141.8148 141.1142 138.8319 135.3011 132.3074 130.492 130.2083 131.0642 132.4844 134.4262 136.5002 138.6082 140.5856 142.2175 143.3654 144.2229 144.1655 142.8642 140.1464 137.4304 134.9164 132.759 130.8562 128.6671 125.5251 122.4191 119.259 115.584 112.1906 108.9817 105.7265 103.5814 102.0245 100.6599 100.0487 100.1356 101.0216 102.9845 105.681 108.9344 111.4146 112.0162 110.5772 107.9314 104.6934 101.1964 97.56432 93.56249 89.08848 84.35179 79.76914 75.78214 72.6702 70.0243 67.49193 65.16856 62.90966 60.41661 58.34685 56.32563 55.73055 55.54625 54.82243 53.19928 50.97919 -9999 45.80914 -9999 -9999 -9999 -9999 -9999 -9999 -9999 -9999 -9999 -9999 -9999 -9999 -9999 -9999 -9999 -9999 -9999 -9999 -9999 -9999 -9999 -9999 -9999 -9999 43.39587 44.50553 45.87442 48.156 50.96452 54.19985 55.38691 54.73304 52.26593 50.38791 48.99349 47.80647 46.50252 44.76661 43.40132 42.01007 40.77982 39.08527 36.26716 -9999 -9999 -9999 -9999 -9999 -9999 -9999 -9999 -9999 -9999 -9999 -9999 -9999 -9999 -9999 -9999 -9999 -9999 -9999 -9999 -9999 -9999 -9999 -9999 -9999 -9999 -9999 -9999 -9999 -9999 -9999 -9999 -9999 -9999 -9999 -9999 -9999 -9999 -9999 -9999 -9999 -9999 -9999 -9999 -9999 -9999 -9999 -9999 -9999 -9999 -9999 -9999 -9999 -9999 -9999 -9999 -9999 -9999 -9999 -9999 -9999 -9999 -9999 -9999 -9999 -9999 -9999 -9999 -9999 -9999 -9999 -9999 -9999 -9999 -9999 -9999 -9999 -9999 -9999 -9999 -9999 -9999 -9999 -9999 -9999 -9999 -9999 -9999 -9999 -9999 -9999 -9999 -9999 -9999 -9999 -9999 -9999 -9999 -9999 -9999 -9999 -9999 -9999 -9999 -9999 -9999 -9999 -9999 -9999 -9999 -9999 -9999 -9999 -9999 -9999 -9999 -9999 -9999 -9999 -9999 -9999 -9999 -9999 -9999 -9999 -9999 -9999 -9999 -9999 -9999 -9999 -9999 -9999 -9999 -9999 -9999 -9999 -9999 -9999 -9999 -9999 -9999 -9999 -9999 -9999 -9999 -9999 -9999 -9999 -9999 -9999 -9999 -9999 -9999 -9999 -9999 -9999 -9999 -9999 -9999 -9999 -9999
104.9435 106.3785 107.4939 108.7917 110.0347 110.7714 110.4336 108.8634 106.3988 103.7845 101.8839 101.0105 101.305 102.5062 104.2468 105.0468 104.9053 104.4521 104.6387 106.0893 109.5345 115.4301 122.9059 130.6129 137.0573 141.0608 142.371 140.3827 136.5347 131.7377 126.4553 121.3667 117.5905 115.7177 115.0198 115.086 115.9527 118.1194 122.1546 127.2752 132.5932 136.9588 139.3271 138.763 135.275 130.4226 125.4784 121.5882 119.5358 118.8699 118.7971 118.8561 118.9314 119.1747 119.9181 121.4548 124.0056 126.912 129.9939 132.9457 135.2332 136.179 135.8711 134.0532 130.4207 126.3511 122.6672 119.1312 115.6757 113.2999 111.1874 110.5256 110.4517 110.1782 109.8489 108.5022 105.3405 101.9343 98.74203 95.12074 91.40769 88.10979 85.36578 84.083 83.93591 84.67446 85.53298 85.64577 84.58485 82.18224 78.501 74.67531 -9999 -9999 -9999 -9999 -9999 -9999 -9999 -9999 -9999 -9999 -9999 -9999 77.12128 79.74278 82.93842 87.37663 92.72325 97.90683 102.2128 105.557 108.2762 110.2851 112.4725 114.9699 117.9564 120.8125 123.7616 126.235 128.3296 129.1591 127.3399 124.5409 121.3306 118.5552 116.8832 116.171 116.0876 116.7003 118.3621 120.725 123.8357 126.8776 130.0711 133.0942 135.6583 138.1326 140.1974 141.8842 142.7455 142.5132 141.384 139.8139 138.7679 138.6569 139.0893 138.8613 137.2482 134.0513 130.8882 129.0057 128.6112 129.4521 130.7539 132.8187 134.9902 137.0743 138.9632 140.0165 140.6306 141.0238 140.9208 140.02 138.0212 135.7019 133.3634 131.1104 129.3719 127.2876 124.798 122.1893 119.2986 115.6355 112.0307 108.5785 105.1518 102.6089 100.7694 99.3548 98.28438 98.011 98.63802 100.2813 102.7837 106.0618 108.6102 109.3313 108.3054 105.742 102.7377 99.42178 95.6946 91.55 87.09421 82.44276 78.09915 74.58863 71.84309 69.59834 67.17578 64.96644 63.04085 60.97585 59.85837 59.07176 58.84436 58.61953 57.66357 55.96779 53.62259 50.59995 47.57617 45.19551 -9999 -9999 -9999 -9999 -9999 -9999 -9999 -9999 -9999 -9999 -9999 -9999 -9999 -9999 -9999 -9999 -9999 -9999 -9999 -9999 -9999 -9999 -9999 -9999 42.77798 44.9161 47.63694 50.78735 54.04757 55.40472 55.42702 54.19767 52.4097 51.37162 50.74137 49.67139 47.66768 45.54495 43.58007 41.79597 39.80203 37.46068 -9999 -9999 -9999 -9999 -9999 -9999 -9999 -9999 -9999 -9999 -9999 -9999 -9999 -9999 -9999 -9999 -9999 -9999 -9999 -9999 -9999 -9999 -9999 -9999 -9999 -9999 -9999 -9999 -9999 -9999 -9999 -9999 -9999 -9999 -9999 -9999 -9999 -9999 -9999 -9999 -9999 -9999 -9999 -9999 -9999 -9999 -9999 -9999 -9999 -9999 -9999 -9999 -9999 -9999 -9999 -9999 -9999 -9999 -9999 -9999 -9999 -9999 -9999 -9999 -9999 -9999 -9999 -9999 -9999 -9999 -9999 -9999 -9999 -9999 -9999 -9999 -9999 -9999 -9999 -9999 -9999 -9999 -9999 -9999 -9999 -9999 -9999 -9999 -9999 -9999 -9999 -9999 -9999 -9999 -9999 -9999 -9999 -9999 -9999 -9999 -9999 -9999 -9999 -9999 -9999 -9999 -9999 -9999 -9999 -9999 -9999 -9999 -9999 -9999 -9999 -9999 -9999 -9999 -9999 -9999 -9999 -9999 -9999 -9999 -9999 -9999 -9999 -9999 -9999 -9999 -9999 -9999 -9999 -9999 -9999 -9999 -9999 -9999 -9999 -9999 -9999 -9999 -9999 -9999 -9999 -9999 -9999 -9999 -9999 -9999 -9999 -9999 -9999 -9999 -9999 -9999 -9999 -9999 -9999 -9999 -9999 -9999
104.4745 106.7366 108.6563 110.7798 113.4739 115.4218 115.6878 114.4138 111.9019 109.0519 106.7616 105.6099 105.7336 106.8527 108.4025 108.912 108.2623 107.2862 107.3474 108.9198 112.9911 119.3755 126.8188 133.7875 138.7382 140.8363 140.4061 137.9236 134.1922 129.8524 125.0454 120.1516 116.0198 113.4766 112.1561 112.0765 113.2195 115.7906 120.0474 125.2093 130.4157 134.7359 137.152 136.9956 134.2022 129.4878 124.2103 119.6196 116.652 115.4924 115.2137 115.2113 115.3277 115.7746 117.006 119.0458 121.7757 124.7508 127.7196 130.5322 132.7475 133.9834 134.1089 132.8144 129.8168 126.2832 123.0764 119.9387 117.0365 114.689 112.2825 110.8668 110.0454 109.401 108.6233 107.1059 104.5855 101.7458 99.07664 95.98053 92.77525 89.07551 85.57059 83.04198 81.17816 81.1879 81.9095 81.88876 80.81531 78.85645 75.85576 72.75137 -9999 -9999 -9999 -9999 -9999 -9999 -9999 -9999 -9999 -9999 -9999 74.69801 76.86559 79.25111 82.399 87.24281 92.9995 98.58167 103.2667 106.7838 109.7116 112.0479 114.4285 116.9828 120.033 123.3795 126.3688 128.8298 129.9851 129.5405 126.4888 122.7793 119.1385 116.328 115.0769 114.8023 114.8947 115.4855 117.3833 119.9978 123.0068 126.1058 129.5658 132.6023 135.2465 137.7797 139.875 140.9801 141.1873 140.3147 138.5532 136.527 135.4859 135.3577 135.6147 135.4341 134.1804 131.6804 129.0322 127.2571 126.8724 127.7434 129.5261 131.5924 133.6871 135.4825 136.9314 137.8311 138.3596 138.5121 138.1691 137.2888 135.6803 133.896 131.5895 129.2429 127.1712 125.1539 123.1409 121.151 118.7152 115.2696 111.4777 107.7131 104.3352 101.6166 99.53066 97.71368 96.54167 96.11279 96.58975 98.10802 100.6112 103.5559 105.4658 105.9832 105.1875 103.0838 100.4624 97.51486 94.11116 90.08938 85.55083 80.92183 76.65529 73.47823 71.11061 69.32236 67.23073 65.42027 64.36464 63.03241 62.37547 62.11524 62.06223 61.82606 60.91193 59.21041 56.28548 52.82593 49.4202 46.61172 44.56823 -9999 -9999 -9999 -9999 -9999 -9999 -9999 -9999 -9999 -9999 -9999 -9999 -9999 -9999 -9999 -9999 -9999 -9999 -9999 -9999 -9999 -9999 40.14389 41.30791 44.05706 46.8596 49.96386 52.84443 54.22028 54.73872 54.83824 53.93219 54.14835 53.97934 52.84039 50.3184 47.62574 45.11412 43.09518 41.07911 39.27723 37.11412 35.51146 -9999 -9999 -9999 -9999 -9999 -9999 -9999 -9999 -9999 -9999 -9999 -9999 -9999 -9999 -9999 -9999 -9999 -9999 -9999 -9999 -9999 -9999 -9999 -9999 -9999 -9999 -9999 -9999 -9999 -9999 -9999 -9999 -9999 -9999 -9999 -9999 -9999 -9999 -9999 -9999 -9999 -9999 -9999 -9999 -9999 -9999 -9999 -9999 -9999 -9999 -9999 -9999 -9999 -9999 -9999 -9999 -9999 -9999 -9999 -9999 -9999 -9999 -9999 -9999 -9999 -9999 -9999 -9999 -9999 -9999 -9999 -9999 -9999 -9999 -9999 -9999 -9999 -9999 -9999 -9999 -9999 -9999 -9999 -9999 -9999 -9999 -9999 -9999 -9999 -9999 -9999 -9999 -9999 -9999 -9999 -9999 -9999 -9999 -9999 -9999 -9999 -9999 -9999 -9999 -9999 -9999 -9999 -9999 -9999 -9999 -9999 -9999 -9999 -9999 -9999 -9999 -9999 -9999 -9999 -9999 -9999 -9999 -9999 -9999 -9999 -9999 -9999 -9999 -9999 -9999 -9999 -9999 -9999 -9999 -9999 -9999 -9999 -9999 -9999 -9999 -9999 -9999 -9999 -9999 -9999 -9999 -9999 -9999 -9999 -9999 -9999 -9999 -9999 -9999 -9999 -9999 -9999 -9999 -9999 -9999
103.6309 106.3025 108.6731 111.3184 114.8965 118.1412 119.528 119.4782 117.6461 114.9326 112.3987 110.9337 111.0059 112.1901 113.4863 113.8514 113.1736 112.0264 111.8462 113.5648 117.7212 123.8139 130.5682 136.4348 139.6685 140.0227 138.1293 134.9511 131.2679 127.7438 123.8383 119.523 115.4549 112.4239 110.463 110.1238 111.3103 114.0161 118.2586 123.2764 128.1941 132.2462 134.5599 134.7192 132.4759 127.9682 122.51 117.5074 114.1728 112.5589 111.9756 111.8503 111.996 112.6353 114.2032 116.6226 119.8262 122.946 125.9762 128.9872 131.2521 132.9158 133.6717 133.1513 130.7348 128.1204 125.5568 123.0489 120.8772 118.8358 116.4413 114.0231 111.3098 109.3537 107.5249 105.4245 102.9718 100.532 98.3934 96.03204 93.40932 89.92722 86.48926 83.56921 80.83784 80.02213 79.81138 78.96701 77.42111 75.47053 73.10209 70.72706 -9999 -9999 -9999 -9999 -9999 -9999 -9999 -9999 -9999 -9999 -9999 74.45507 76.36661 78.57661 81.67899 86.47617 92.28602 98.09145 103.0322 106.816 110.0177 112.6517 115.1226 117.7947 120.8596 124.4734 127.5937 129.8564 130.5804 129.3969 125.673 121.1176 117.2027 114.7917 113.6443 113.4103 113.7611 114.7832 116.6897 119.4883 122.4904 125.7671 129.405 132.4545 135.081 137.469 139.4726 140.0342 139.6889 138.1342 135.529 133.4302 132.3597 132.1516 132.2354 131.9138 130.6625 128.6519 126.3162 124.9846 124.9051 125.99 128.2408 130.4946 132.5215 134.0543 134.7776 135.4908 136.0819 136.1373 135.5567 134.6918 133.2442 131.5446 129.3217 126.7133 124.5374 122.6419 120.908 119.4291 117.3071 114.3983 110.6028 106.6571 103.3225 100.4742 98.10582 95.96663 94.69967 94.03251 94.31532 95.71908 98.27839 100.8096 102.405 102.8261 102.1326 100.3896 98.1703 95.61703 92.59609 89.07497 84.84894 80.21767 75.88062 72.62582 70.30361 68.74251 67.34995 66.28586 65.66969 65.12018 65.00917 65.1048 65.15324 64.9743 64.22207 62.42753 59.04305 54.9528 50.98098 47.86414 45.4383 -9999 -9999 -9999 -9999 -9999 -9999 -9999 -9999 -9999 -9999 -9999 -9999 -9999 -9999 -9999 -9999 -9999 -9999 -9999 -9999 -9999 -9999 -9999 40.51907 42.92888 45.211 47.79356 49.78364 51.06177 52.09933 53.57963 54.80079 55.57233 55.66241 54.53537 52.18114 49.4148 46.73272 44.9813 43.34605 41.91132 40.13118 38.08266 35.53195 33.28402 -9999 -9999 -9999 -9999 -9999 -9999 -9999 -9999 -9999 -9999 -9999 -9999 -9999 -9999 -9999 -9999 -9999 -9999 -9999 -9999 -9999 -9999 -9999 -9999 -9999 -9999 -9999 -9999 -9999 -9999 -9999 -9999 -9999 -9999 -9999 -9999 -9999 -9999 -9999 -9999 -9999 -9999 -9999 -9999 -9999 -9999 -9999 -9999 -9999 -9999 -9999 -9999 -9999 -9999 -9999 -9999 -9999 -9999 -9999 -9999 -9999 -9999 -9999 -9999 -9999 -9999 -9999 -9999 -9999 -9999 -9999 -9999 -9999 -9999 -9999 -9999 -9999 -9999 -9999 -9999 -9999 -9999 -9999 -9999 -9999 -9999 -9999 -9999 -9999 -9999 -9999 -9999 -9999 -9999 -9999 -9999 -9999 -9999 -9999 -9999 -9999 -9999 -9999 -9999 -9999 -9999 -9999 -9999 -9999 -9999 -9999 -9999 -9999 -9999 -9999 -9999 -9999 -9999 -9999 -9999 -9999 -9999 -9999 -9999 -9999 -9999 -9999 -9999 -9999 -9999 -9999 -9999 -9999 -9999 -9999 -9999 -9999 -9999 -9999 -9999 -9999 -9999 -9999 -9999 -9999 -9999 -9999 -9999 -9999 -9999 -9999 -9999 -9999 -9999 -9999 -9999 -9999 -9999
102.5367 105.3391 107.893 110.7438 114.4966 118.4521 121.3591 123.1644 122.4921 120.3977 118.1589 116.5938 116.5929 117.7953 118.8926 119.2735 118.8548 118.0406 117.9202 119.3093 122.7441 127.9291 133.5102 138.0496 139.8857 138.6903 135.4606 131.6394 127.9104 124.8987 122.0701 118.6458 115.1043 112.0495 109.9003 108.9529 109.6742 111.959 116.0491 120.9465 125.7023 129.4569 131.447 131.7474 129.7187 125.5631 120.3632 115.4247 111.7633 109.8435 108.9851 108.7209 108.861 109.6445 111.6492 114.945 118.5322 121.7315 124.9244 127.8971 130.4111 132.6934 134.1669 134.4247 133.0218 131.4578 129.7628 127.9637 126.0156 123.8076 120.9346 117.2957 113.1871 109.7028 106.6645 103.9305 101.1513 98.97102 97.18912 95.31229 93.09612 90.24083 87.26285 84.44921 81.75557 80.06208 78.67068 76.51628 74.48174 72.62065 -9999 -9999 -9999 -9999 -9999 -9999 -9999 -9999 -9999 -9999 -9999 -9999 -9999 -9999 75.43808 77.72672 80.94927 85.609 91.16698 96.86246 101.8942 106.074 109.7467 112.6554 115.225 117.9897 121.0651 124.7912 127.9989 130.0656 130.7099 129.2767 125.3723 120.6937 116.5615 114.0913 112.7415 112.3386 112.7141 113.8535 115.8317 118.8598 122.0029 125.563 129.3227 132.2899 134.7151 136.6448 138.2726 138.7161 137.888 135.6777 132.6037 130.448 129.2688 128.9554 128.9233 128.5542 127.3204 125.4966 123.6922 122.6596 123.0554 124.9214 127.3949 129.6992 131.1099 131.793 131.9034 132.6445 133.452 133.5544 132.8941 131.9557 130.5574 128.9924 126.8951 124.4082 121.9333 120.2312 118.7627 117.3097 115.4385 113.0884 109.5958 105.7243 102.357 99.55209 97.03316 94.76824 92.75125 91.31092 91.3362 92.76655 95.10874 97.58898 98.99409 99.36855 98.87658 97.52214 95.74715 93.83685 91.15572 88.18899 84.47326 79.97935 75.51514 71.99896 69.69884 68.23006 67.3786 66.98651 66.85493 66.93256 67.29325 67.6955 67.70823 67.38458 66.49846 64.59967 61.20483 56.891 52.6073 49.26133 46.65005 44.51875 -9999 -9999 -9999 -9999 -9999 -9999 -9999 -9999 -9999 -9999 -9999 -9999 -9999 -9999 -9999 -9999 -9999 -9999 -9999 -9999 -9999 -9999 -9999 -9999 42.59885 44.46677 46.16345 47.90564 49.70381 51.82203 54.37072 55.86782 56.39825 55.1903 53.41238 50.96296 48.80013 47.25586 45.73182 44.56038 42.88871 40.04299 37.01905 34.31128 -9999 -9999 -9999 -9999 -9999 -9999 -9999 -9999 -9999 -9999 -9999 -9999 -9999 -9999 -9999 -9999 -9999 -9999 -9999 -9999 -9999 -9999 -9999 -9999 -9999 -9999 -9999 -9999 -9999 -9999 -9999 -9999 -9999 -9999 -9999 -9999 -9999 -9999 -9999 -9999 -9999 -9999 -9999 -9999 -9999 -9999 -9999 -9999 -9999 -9999 -9999 -9999 -9999 -9999 -9999 -9999 -9999 -9999 -9999 -9999 -9999 -9999 -9999 -9999 -9999 -9999 -9999 -9999 -9999 -9999 -9999 -9999 -9999 -9999 -9999 -9999 -9999 -9999 -9999 -9999 -9999 -9999 -9999 -9999 -9999 -9999 -9999 -9999 -9999 -9999 -9999 -9999 -9999 -9999 -9999 -9999 -9999 -9999 -9999 -9999 -9999 -9999 -9999 -9999 -9999 -9999 -9999 -9999 -9999 -9999 -9999 -9999 -9999 -9999 -9999 -9999 -9999 -9999 -9999 -9999 -9999 -9999 -9999 -9999 -9999 -9999 -9999 -9999 -9999 -9999 -9999 -9999 -9999 -9999 -9999 -9999 -9999 -9999 -9999 -9999 -9999 -9999 -9999 -9999 -9999 -9999 -9999 -9999 -9999 -9999 -9999 -9999 -9999 -9999 -9999 -9999 -9999 -9999
101.2263 104.2165 106.6796 109.3339 112.656 116.814 120.8932 124.1671 125.0476 124.5101 123.2083 121.7864 121.8867 122.9873 123.978 124.5309 124.5218 124.1969 124.1838 125.0887 127.3678 131.3153 135.443 138.3954 138.7976 136.4802 132.6538 128.6243 124.7656 121.6422 119.2551 116.7884 114.2093 111.3485 109.0833 107.557 107.8259 109.9878 113.8507 118.5657 123.1357 126.5658 128.3776 128.5517 126.5498 122.7399 117.8703 113.2299 109.6149 107.2403 105.8493 105.3994 105.6609 106.9051 110.1345 114.0189 117.6355 120.933 124.3998 127.4799 130.3569 133.3034 135.6192 137.0351 136.9037 135.9456 134.7225 132.9665 130.7533 127.8182 123.9704 119.385 114.4378 109.7688 105.62 102.2156 99.34644 97.10814 95.62843 94.2691 92.4135 90.17387 87.6256 85.02983 82.53831 80.51237 78.50676 75.28864 72.19199 70.28366 -9999 -9999 -9999 -9999 -9999 -9999 -9999 -9999 -9999 -9999 -9999 -9999 -9999 -9999 73.98361 76.67287 80.24337 84.8802 90.24454 95.72617 100.8368 105.404 109.4585 112.5958 115.2754 118.1459 121.2439 125.0351 128.3726 130.3108 130.9576 129.4015 125.5546 121.0692 117.0055 114.1775 112.3098 111.5637 111.8152 112.9792 115.0907 118.0061 121.3294 125.2554 129.0988 131.9059 134.0318 135.6051 137.2094 137.7118 136.7808 134.4607 131.0717 128.3843 126.3897 125.6487 125.4052 125.0721 124.215 122.7309 121.3639 120.5151 121.2792 123.8489 126.3349 128.4009 129.1945 129.2795 129.0804 129.3658 129.8287 129.9388 129.617 128.9677 127.7435 126.1924 124.4995 122.3198 120.1131 118.3598 116.7938 115.1582 113.2606 110.9866 107.95 104.4035 101.0646 98.31847 95.82837 93.51527 90.97791 89.30477 88.79822 89.62452 91.37788 93.4694 94.64936 95.01367 94.79121 94.06471 92.94363 91.64095 89.77692 87.4314 84.28174 79.94201 75.27224 71.26671 68.76737 67.45036 67.03516 67.20702 67.46782 67.98228 68.70292 69.37152 69.22351 68.75573 67.83832 66.10697 63.19822 58.99039 54.57333 50.80078 47.94284 45.41002 42.83498 -9999 -9999 -9999 -9999 -9999 -9999 -9999 -9999 -9999 -9999 -9999 -9999 -9999 -9999 -9999 -9999 -9999 -9999 -9999 -9999 -9999 -9999 -9999 40.11222 41.3278 43.07913 45.24545 47.74049 50.56807 53.49448 55.54081 56.81717 55.55136 54.52316 52.54087 50.5939 49.29296 47.66393 46.14021 44.14569 40.85248 37.58323 34.6249 31.8997 -9999 -9999 -9999 -9999 -9999 -9999 -9999 -9999 -9999 -9999 -9999 -9999 -9999 -9999 -9999 -9999 -9999 -9999 -9999 -9999 -9999 -9999 -9999 -9999 -9999 -9999 -9999 -9999 -9999 -9999 -9999 -9999 -9999 -9999 -9999 -9999 -9999 -9999 -9999 -9999 -9999 -9999 -9999 -9999 -9999 -9999 -9999 -9999 -9999 -9999 -9999 -9999 -9999 -9999 -9999 -9999 -9999 -9999 -9999 -9999 -9999 -9999 -9999 -9999 -9999 -9999 -9999 -9999 -9999 -9999 -9999 -9999 -9999 -9999 -9999 -9999 -9999 -9999 -9999 -9999 -9999 -9999 -9999 -9999 -9999 -9999 -9999 -9999 -9999 -9999 -9999 -9999 -9999 -9999 -9999 -9999 -9999 -9999 -9999 -9999 -9999 -9999 -9999 -9999 -9999 -9999 -9999 -9999 -9999 -9999 -9999 -9999 -9999 -9999 -9999 -9999 -9999 -9999 -9999 -9999 -9999 -9999 -9999 -9999 -9999 -9999 -9999 -9999 -9999 -9999 -9999 -9999 -9999 -9999 -9999 -9999 -9999 -9999 -9999 -9999 -9999 -9999 -9999 -9999 -9999 -9999 -9999 -9999 -9999 -9999 -9999 -9999 -9999 -9999 -9999 -9999 -9999
101.2864 103.7117 105.5909 107.8016 110.7496 114.7317 119.2445 123.3693 125.8536 127.0894 127.0598 126.5874 126.7047 127.4415 128.2505 129.0247 129.4074 129.5465 129.6989 130.2697 131.624 134.524 137.3058 138.9657 138.2533 135.2336 130.8648 126.2635 122.0169 118.6855 116.2065 114.3215 112.444 109.7301 107.2451 105.5326 105.6052 107.6332 111.1539 115.6334 120.011 123.2653 124.7484 124.6043 122.6636 119.1897 114.861 110.6784 107.3401 105.0014 103.6103 103.1927 103.7973 105.8104 109.5505 113.7449 117.4274 120.7856 124.3465 127.5521 130.7588 134.4054 137.5797 139.6829 140.2604 139.4902 138.1594 135.7185 133.1133 129.5636 125.1566 120.1039 114.6955 109.3252 104.4483 100.4734 97.24445 94.75601 93.45259 92.28528 91.05377 89.57671 87.35924 85.01228 82.60948 80.39527 78.03093 74.57101 71.12152 68.9884 -9999 -9999 -9999 -9999 -9999 -9999 -9999 -9999 -9999 -9999 -9999 -9999 -9999 -9999 72.43854 75.59633 79.64523 84.38719 89.74936 95.14292 100.3051 105.04 109.4188 112.7844 115.5844 118.6183 121.7453 125.5337 129.1115 131.0863 131.5548 129.7427 126.0233 121.9825 118.18 114.6668 112.0021 110.8582 110.9239 111.9979 114.2463 117.1305 120.6893 124.7675 128.5703 131.3437 133.5231 135.2231 136.7729 137.3251 136.4026 134.1859 130.7169 127.6777 125.1778 123.7 122.8367 122.2195 121.4839 120.3826 119.6741 119.3821 120.3785 122.5358 124.5127 125.6729 126.0237 125.9414 125.7505 125.7946 125.9754 126.0514 125.9391 125.6146 124.9109 123.7432 122.2523 120.4155 118.497 116.7178 114.9967 113.1054 110.8928 108.4443 105.3807 102.3607 99.49725 96.7775 94.18439 91.73997 89.34721 87.4082 86.45456 86.43078 87.60951 89.01453 89.82182 90.10606 90.06492 89.81765 89.43583 88.91606 87.86004 86.39088 84.00937 79.94251 75.15878 70.73747 67.72998 66.34168 66.08572 66.45236 67.12647 67.94054 68.76049 69.30376 69.22484 68.80762 68.03363 66.60468 64.13022 60.23284 56.0245 52.25903 49.30587 46.64506 43.65889 -9999 -9999 -9999 -9999 -9999 -9999 -9999 -9999 -9999 -9999 -9999 -9999 -9999 -9999 -9999 -9999 -9999 -9999 -9999 -9999 -9999 -9999 -9999 -9999 39.39274 40.93502 43.36946 46.28097 49.67348 52.71349 54.99027 56.17448 55.7854 55.01124 53.42508 51.64277 50.04105 48.25124 46.39837 44.1294 40.6334 37.15263 34.12073 -9999 -9999 -9999 -9999 -9999 -9999 -9999 -9999 -9999 -9999 -9999 -9999 -9999 -9999 -9999 -9999 -9999 -9999 -9999 -9999 -9999 -9999 -9999 -9999 -9999 -9999 -9999 -9999 -9999 -9999 -9999 -9999 -9999 -9999 -9999 -9999 -9999 -9999 -9999 -9999 -9999 -9999 -9999 -9999 -9999 -9999 -9999 -9999 -9999 -9999 -9999 -9999 -9999 -9999 -9999 -9999 -9999 -9999 -9999 -9999 -9999 -9999 -9999 -9999 -9999 -9999 -9999 -9999 -9999 -9999 -9999 -9999 -9999 -9999 -9999 -9999 -9999 -9999 -9999 -9999 -9999 -9999 -9999 -9999 -9999 -9999 -9999 -9999 -9999 -9999 -9999 -9999 -9999 -9999 -9999 -9999 -9999 -9999 -9999 -9999 -9999 -9999 -9999 -9999 -9999 -9999 -9999 -9999 -9999 -9999 -9999 -9999 -9999 -9999 -9999 -9999 -9999 -9999 -9999 -9999 -9999 -9999 -9999 -9999 -9999 -9999 -9999 -9999 -9999 -9999 -9999 -9999 -9999 -9999 -9999 -9999 -9999 -9999 -9999 -9999 -9999 -9999 -9999 -9999 -9999 -9999 -9999 -9999 -9999 -9999 -9999 -9999 -9999 -9999 -9999 -9999 -9999 -9999
103.3923 103.9405 104.9336 106.5591 109.0101 112.434 116.9116 121.5092 125.4417 128.5424 129.9273 130.6627 131.1062 131.3675 131.6983 132.3252 132.7274 133.4832 133.9624 134.5576 135.5941 137.4184 139.1299 139.9986 138.5214 135.0104 130.2645 125.2198 120.4151 116.4916 113.6885 111.5212 109.7617 107.4506 105.1928 103.7062 103.6732 105.2974 108.422 112.5661 116.5884 119.39 120.5605 120.1939 118.394 115.2154 111.5099 107.9659 105.0676 103.0803 101.9819 101.8349 102.9142 105.4431 109.4846 113.9079 117.8062 121.2216 124.7049 127.9445 131.2665 135.2664 138.9981 141.1619 141.7466 140.0383 138.0378 135.2073 132.4202 129.016 124.719 119.7137 114.2645 108.6056 103.3906 99.33208 95.63426 92.36164 90.78035 89.88235 88.97986 88.00166 86.09487 84.08411 81.68433 79.29784 76.62775 73.60535 70.49462 68.27097 -9999 -9999 -9999 -9999 -9999 -9999 -9999 -9999 -9999 -9999 -9999 -9999 -9999 -9999 71.25153 74.95333 79.46917 84.4573 89.74561 95.0435 100.2555 105.1775 109.6857 113.3223 116.2528 119.4356 122.5607 126.0024 129.4502 131.3291 131.8142 129.7798 126.1621 122.3659 118.599 114.6415 111.3089 109.9691 109.8855 110.6907 112.9076 115.8987 119.7213 123.7727 127.4041 130.4184 132.9662 135.0472 136.6092 137.2422 136.3088 134.3244 131.0535 127.9382 125.0008 122.7652 121.1624 120.1452 119.4396 118.4668 117.9677 118.1381 119.5294 121.0044 122.187 122.8016 122.9283 122.8033 122.6385 122.5971 122.6627 122.733 122.7294 122.5909 122.1854 121.3626 120.1048 118.6743 116.9058 115.1511 113.3331 111.2073 108.6512 105.6382 102.505 99.93054 97.4679 94.87412 92.01898 89.6904 87.34874 85.34826 84.24236 83.63881 84.03317 84.62496 85.00552 85.16017 85.19755 85.22317 85.31357 85.45896 85.31429 84.82638 83.35268 79.79668 75.0752 70.30121 66.59251 64.98399 64.66462 65.02813 65.9774 66.93599 67.75706 68.12724 67.9369 67.53591 66.95543 65.87903 63.86246 60.52208 56.94732 53.60198 50.26191 47.22748 44.06151 -9999 -9999 -9999 -9999 -9999 -9999 -9999 -9999 -9999 -9999 -9999 -9999 -9999 -9999 -9999 -9999 -9999 -9999 -9999 -9999 -9999 -9999 -9999 -9999 -9999 -9999 42.25019 45.36332 48.75257 51.58947 53.8266 54.92764 55.04462 54.66303 53.23117 51.4493 49.58647 47.45455 45.284 42.88054 39.36493 35.73349 32.68884 -9999 -9999 -9999 -9999 -9999 -9999 -9999 -9999 -9999 -9999 -9999 -9999 -9999 -9999 -9999 -9999 -9999 -9999 -9999 -9999 -9999 -9999 -9999 -9999 -9999 -9999 -9999 -9999 -9999 -9999 -9999 -9999 -9999 -9999 -9999 -9999 -9999 -9999 -9999 -9999 -9999 -9999 -9999 -9999 -9999 -9999 -9999 -9999 -9999 -9999 -9999 -9999 -9999 -9999 -9999 -9999 -9999 -9999 -9999 -9999 -9999 -9999 -9999 -9999 -9999 -9999 -9999 -9999 -9999 -9999 -9999 -9999 -9999 -9999 -9999 -9999 -9999 -9999 -9999 -9999 -9999 -9999 -9999 -9999 -9999 -9999 -9999 -9999 -9999 -9999 -9999 -9999 -9999 -9999 -9999 -9999 -9999 -9999 -9999 -9999 -9999 -9999 -9999 -9999 -9999 -9999 -9999 -9999 -9999 -9999 -9999 -9999 -9999 -9999 -9999 -9999 -9999 -9999 -9999 -9999 -9999 -9999 -9999 -9999 -9999 -9999 -9999 -9999 -9999 -9999 -9999 -9999 -9999 -9999 -9999 -9999 -9999 -9999 -9999 -9999 -9999 -9999 -9999 -9999 -9999 -9999 -9999 -9999 -9999 -9999 -9999 -9999 -9999 -9999 -9999 -9999 -9999 -9999
106.6953 105.4213 105.1623 106.0892 107.9896 110.9767 115.2262 119.832 124.2571 128.3338 131.344 133.7616 134.9546 134.907 134.7067 134.7969 134.9911 135.5075 136.371 137.4492 138.5709 139.9298 140.7426 140.7207 139.2566 135.4698 130.3797 124.9797 119.832 115.4153 112.0912 109.6803 107.6224 105.4279 103.3334 101.9162 101.7651 103.0193 105.718 109.4061 112.9682 115.3068 116.2971 115.6467 113.9017 111.1158 108.199 105.208 102.8286 101.3938 100.7646 100.9368 102.4818 105.4095 109.667 114.328 118.6375 122.2567 125.503 128.6509 131.8518 135.7087 139.3312 140.8453 140.2565 137.6896 135.0002 132.3182 129.8059 126.76 122.9782 118.4875 113.6171 108.4546 103.5975 99.82073 96.15235 92.24377 90.08122 88.30815 86.40514 85.27824 83.78592 82.06635 79.85787 77.33961 74.65948 72.10018 69.88296 -9999 -9999 -9999 -9999 -9999 -9999 -9999 -9999 -9999 -9999 -9999 -9999 -9999 -9999 68.03352 70.71202 74.76236 79.5953 84.82417 90.22074 95.51654 100.6032 105.5056 110.1089 114.0233 117.0074 119.9494 122.8759 125.9411 128.9206 130.1931 130.224 128.579 125.3511 121.7124 117.9793 113.9996 110.5575 108.8657 108.6083 109.5211 111.4709 114.3895 118.1955 122.1018 125.7965 129.1856 132.0436 134.507 136.0637 136.5932 135.8959 134.4588 131.7925 128.8167 125.4857 122.6591 120.3146 118.833 117.7137 116.6706 116.1398 116.1471 117.629 118.6031 119.1444 119.3608 119.3565 119.2545 119.1594 119.1473 119.2323 119.3719 119.4684 119.4744 119.3113 118.7934 117.6562 116.2839 115.085 113.6378 111.7722 109.3833 106.3455 103.1634 100.0973 97.56183 95.37457 93.03165 90.22466 87.79666 85.41325 83.25783 81.82007 80.78593 80.56057 80.62391 80.7169 80.78627 80.88631 81.10947 81.54227 82.26612 82.66881 82.7015 81.96744 79.39324 75.02288 70.13544 65.96473 63.62804 62.66165 62.97276 64.16775 65.13231 65.9466 66.11409 65.5961 65.04855 64.5673 63.75608 62.04501 59.48367 56.5284 53.61685 50.33898 47.30502 44.18442 -9999 -9999 -9999 -9999 -9999 -9999 -9999 -9999 -9999 -9999 -9999 -9999 -9999 -9999 -9999 -9999 -9999 -9999 -9999 -9999 -9999 -9999 -9999 -9999 -9999 39.04053 41.19725 44.269 47.09004 49.50971 51.30659 52.6245 53.07795 52.82058 51.65885 49.85363 47.67657 45.32771 42.94733 40.33609 37.06408 33.80032 31.0804 -9999 -9999 -9999 -9999 -9999 -9999 -9999 -9999 -9999 -9999 -9999 -9999 -9999 -9999 -9999 -9999 -9999 -9999 -9999 -9999 -9999 -9999 -9999 -9999 -9999 -9999 -9999 -9999 -9999 -9999 -9999 -9999 -9999 -9999 -9999 -9999 -9999 -9999 -9999 -9999 -9999 -9999 -9999 -9999 -9999 -9999 -9999 -9999 -9999 -9999 -9999 -9999 -9999 -9999 -9999 -9999 -9999 -9999 -9999 -9999 -9999 -9999 -9999 -9999 -9999 -9999 -9999 -9999 -9999 -9999 -9999 -9999 -9999 -9999 -9999 -9999 -9999 -9999 -9999 -9999 -9999 -9999 -9999 -9999 -9999 -9999 -9999 -9999 -9999 -9999 -9999 -9999 -9999 -9999 -9999 -9999 -9999 -9999 -9999 -9999 -9999 -9999 -9999 -9999 -9999 -9999 -9999 -9999 -9999 -9999 -9999 -9999 -9999 -9999 -9999 -9999 -9999 -9999 -9999 -9999 -9999 -9999 -9999 -9999 -9999 -9999 -9999 -9999 -9999 -9999 -9999 -9999 -9999 -9999 -9999 -9999 -9999 -9999 -9999 -9999 -9999 -9999 -9999 -9999 -9999 -9999 -9999 -9999 -9999 -9999 -9999 -9999 -9999 -9999 -9999 -9999 -9999 -9999
111.2239 108.4464 106.9571 106.798 107.957 110.4624 114.3319 118.5061 122.6448 127.0612 131.2733 134.9687 137.1688 136.681 135.8372 135.5024 135.4959 135.9934 137.4362 139.2767 140.764 142.4268 143.2876 142.8505 140.7529 136.4908 130.9154 125.182 119.7633 114.9575 111.076 108.3781 106.1503 104.0212 101.7575 100.1912 99.88184 100.7267 103.0249 106.1203 109.141 111.22 112.1848 111.2028 109.4764 107.0618 104.7486 102.4098 100.5709 99.82371 99.80119 100.2768 102.3477 105.6141 110.0054 114.7836 119.3767 123.3762 126.5808 129.6177 132.6622 135.8967 138.9886 139.7501 138.2973 135.101 131.9382 129.2477 126.6452 123.736 120.3085 116.6359 112.9589 109.0778 105.2007 101.8417 98.51041 94.90186 91.73205 89.06363 86.25596 84.12311 81.79333 80.27913 78.22019 75.54221 72.69553 70.59047 69.33063 -9999 -9999 -9999 -9999 -9999 -9999 -9999 -9999 -9999 -9999 -9999 -9999 -9999 65.1776 67.37102 70.48574 74.82475 79.91413 85.40177 90.99675 96.32178 101.1674 105.8024 110.2487 114.0756 116.8742 119.5492 122.2269 125.0163 127.2232 128.053 127.6367 125.9256 123.2066 119.7722 116.0683 112.3585 109.1649 107.3006 106.8894 107.6564 109.5244 112.185 115.9369 119.9437 123.7974 127.2781 130.3712 133.1475 135.0441 135.7115 135.1767 134.2952 132.3977 129.8074 126.6022 123.5119 120.5786 118.5104 116.8116 115.3119 114.4986 113.8196 114.264 114.6365 114.827 114.8768 114.8358 114.7761 114.7652 114.866 115.1213 115.5052 115.7741 115.89 115.8676 115.6432 115.104 114.3347 113.4827 112.2368 110.3169 107.6758 104.4806 100.9976 97.76651 95.0541 93.0023 90.62014 88.20157 86.02562 83.77383 81.33036 79.82802 78.6747 78.02362 77.65984 77.53244 77.56655 77.78418 78.26037 78.92712 79.75419 80.30596 80.65112 80.73538 79.02972 75.02897 70.16054 65.67982 62.58772 60.7132 60.59845 61.63331 62.59908 63.4235 63.45205 62.65193 61.66534 60.94714 60.13106 58.90079 56.96323 54.58636 52.14272 -9999 46.8766 44.13807 -9999 -9999 -9999 -9999 -9999 -9999 -9999 -9999 -9999 -9999 -9999 -9999 -9999 -9999 -9999 -9999 -9999 -9999 -9999 -9999 -9999 -9999 -9999 -9999 -9999 38.23519 40.14885 42.64114 44.72543 46.72356 48.46154 49.83606 50.38176 50.17429 49.11832 47.21188 44.84543 42.38425 39.88119 37.37888 34.3417 31.59254 -9999 -9999 -9999 -9999 -9999 -9999 -9999 -9999 -9999 -9999 -9999 -9999 -9999 -9999 -9999 -9999 -9999 -9999 -9999 -9999 -9999 -9999 -9999 -9999 -9999 -9999 -9999 -9999 -9999 -9999 -9999 -9999 -9999 -9999 -9999 -9999 -9999 -9999 -9999 -9999 -9999 -9999 -9999 -9999 -9999 -9999 -9999 -9999 -9999 -9999 -9999 -9999 -9999 -9999 -9999 -9999 -9999 -9999 -9999 -9999 -9999 -9999 -9999 -9999 -9999 -9999 -9999 -9999 -9999 -9999 -9999 -9999 -9999 -9999 -9999 -9999 -9999 -9999 -9999 -9999 -9999 -9999 -9999 -9999 -9999 -9999 -9999 -9999 -9999 -9999 -9999 -9999 -9999 -9999 -9999 -9999 -9999 -9999 -9999 -9999 -9999 -9999 -9999 -9999 -9999 -9999 -9999 -9999 -9999 -9999 -9999 -9999 -9999 -9999 -9999 -9999 -9999 -9999 -9999 -9999 -9999 -9999 -9999 -9999 -9999 -9999 -9999 -9999 -9999 -9999 -9999 -9999 -9999 -9999 -9999 -9999 -9999 -9999 -9999 -9999 -9999 -9999 -9999 -9999 -9999 -9999 -9999 -9999 -9999 -9999 -9999 -9999 -9999 -9999 -9999 -9999 -9999 -9999 -9999
116.0572 112.084 109.5469 108.3709 108.824 110.8735 114.3599 118.16 121.9703 126.2746 130.7467 134.569 136.4392 136.1849 135.2186 134.9764 134.9881 135.4635 137.5398 140.0039 142.3817 144.6204 145.82 145.0399 142.3748 137.3993 131.4093 125.4685 119.9087 114.8975 110.6999 107.6521 105.1017 102.6549 100.3162 98.65081 98.12079 98.71075 100.4664 103.0554 105.3875 107.2751 108.0179 106.9628 105.4175 103.4878 101.6005 99.79909 98.4877 98.11148 98.66582 100.0424 102.6633 106.2346 110.6542 115.3273 119.9153 124.0708 127.405 130.3712 133.31 135.8364 137.918 137.9488 135.8622 132.4761 129.3711 126.4521 123.5265 120.5354 117.7331 115.2608 112.7461 110.0579 107.2881 104.5668 101.6068 98.39425 95.11804 91.99188 88.64592 85.73532 82.97333 80.69599 78.20242 75.04978 71.71832 69.88017 68.76103 -9999 -9999 -9999 -9999 -9999 -9999 -9999 -9999 -9999 -9999 -9999 60.50531 61.48146 64.02602 66.78731 70.3576 74.97941 80.31492 86.08728 91.95576 97.30547 101.6459 105.6754 109.6221 112.9387 115.3161 117.6639 120.227 123.0583 124.8298 125.2424 124.398 122.3715 119.8351 116.8675 113.5845 110.1294 106.9674 105.2945 104.9417 105.5618 107.4115 110.119 113.7253 117.5688 121.317 124.9095 128.2007 131.3242 133.744 134.8748 134.9766 134.4183 133.1339 131.1819 128.6085 125.3999 121.9743 119.2787 116.9576 114.8473 112.9861 111.2466 110.6096 110.2501 110.0723 109.9634 109.8633 109.832 109.9368 110.2592 110.8748 111.8057 112.4053 112.6591 112.7218 112.6681 112.4859 112.1748 111.6927 110.7424 108.9549 106.069 102.7604 99.16449 95.53915 92.37657 90.24168 88.19572 86.06837 84.18245 81.95961 79.7625 78.09885 76.8297 75.9155 75.1954 74.90745 74.92184 75.23492 75.94295 76.7182 77.62274 78.57614 79.41347 79.80487 78.51501 74.9156 70.23858 65.69367 62.27423 59.98141 59.00266 59.19761 59.44871 59.7314 59.672 59.12148 58.17651 57.14969 55.96076 54.90711 53.57089 51.63696 -9999 -9999 -9999 43.98206 -9999 -9999 -9999 -9999 -9999 -9999 -9999 -9999 -9999 -9999 -9999 -9999 -9999 -9999 -9999 -9999 -9999 -9999 -9999 -9999 -9999 -9999 -9999 -9999 -9999 37.10866 38.37233 39.78091 41.44112 43.30849 45.16648 46.76251 47.45985 47.14021 45.83643 43.89959 41.39225 -9999 36.34954 34.0196 31.63041 -9999 -9999 -9999 -9999 -9999 -9999 -9999 -9999 -9999 -9999 -9999 -9999 -9999 -9999 -9999 -9999 -9999 -9999 -9999 -9999 -9999 -9999 -9999 -9999 -9999 -9999 -9999 -9999 -9999 -9999 -9999 -9999 -9999 -9999 -9999 -9999 -9999 -9999 -9999 -9999 -9999 -9999 -9999 -9999 -9999 -9999 -9999 -9999 -9999 -9999 -9999 -9999 -9999 -9999 -9999 -9999 -9999 -9999 -9999 -9999 -9999 -9999 -9999 -9999 -9999 -9999 -9999 -9999 -9999 -9999 -9999 -9999 -9999 -9999 -9999 -9999 -9999 -9999 -9999 -9999 -9999 -9999 -9999 -9999 -9999 -9999 -9999 -9999 -9999 -9999 -9999 -9999 -9999 -9999 -9999 -9999 -9999 -9999 -9999 -9999 -9999 -9999 -9999 -9999 -9999 -9999 -9999 -9999 -9999 -9999 -9999 -9999 -9999 -9999 -9999 -9999 -9999 -9999 -9999 -9999 -9999 -9999 -9999 -9999 -9999 -9999 -9999 -9999 -9999 -9999 -9999 -9999 -9999 -9999 -9999 -9999 -9999 -9999 -9999 -9999 -9999 -9999 -9999 -9999 -9999 -9999 -9999 -9999 -9999 -9999 -9999 -9999 -9999 -9999 -9999 -9999 -9999 -9999 -9999 -9999
120.5434 115.872 112.4398 110.5176 110.5324 112.3979 115.431 118.9679 122.4631 126.2021 130.2346 133.5054 134.8043 134.6859 134.0329 133.9949 134.3917 135.316 137.6519 140.308 143.1039 145.7024 147.7023 146.0997 142.745 137.434 131.4045 125.5363 120.036 114.9974 110.6635 107.3764 104.5571 101.6918 99.22055 97.2032 96.44993 96.72751 97.92451 99.84372 101.6995 103.4566 103.9934 103.1797 101.8681 100.2397 98.73286 97.33392 96.52208 96.53731 97.77184 100.0337 103.3679 107.4161 111.8324 116.1815 120.4842 124.6108 128.1559 131.1909 134.1952 136.3578 137.5746 136.9719 134.5984 131.05 127.746 124.4261 120.8287 117.5962 115.7679 114.6758 113.1419 111.4326 109.5191 107.354 104.6801 101.6325 98.63433 95.62383 92.20724 89.07552 86.00454 83.23518 80.17212 76.55317 72.77512 70.55621 -9999 -9999 -9999 -9999 -9999 -9999 -9999 -9999 -9999 -9999 -9999 -9999 -9999 60.56227 63.2213 66.25955 70.22322 75.10394 80.60329 86.4901 92.29672 97.33799 101.0844 104.4009 107.5904 110.0565 112.223 114.4349 116.926 119.9208 121.9091 122.2888 121.0546 118.6179 116.1555 113.4949 110.6295 107.8346 105.0988 103.5698 103.2069 103.8046 105.4337 107.9505 111.302 115.1177 118.8205 122.3223 125.6605 128.8806 131.3976 133.234 134.1357 134.2662 133.6943 132.4538 130.5255 127.8315 124.3072 120.9176 117.9406 115.1167 112.5206 110.0426 108.128 106.6345 105.8321 105.3876 105.0731 105.0049 105.2465 105.8777 106.888 108.3147 109.0679 109.2851 109.2976 109.2862 109.288 109.2756 109.135 108.532 106.9189 104.3749 101.0833 97.4512 93.75307 90.43338 88.05295 86.18605 84.27086 82.15091 79.9211 77.83473 76.1908 74.82512 73.74871 72.73862 72.28806 72.29514 72.72285 73.59528 74.37133 75.36533 76.68077 77.79765 78.18357 77.11868 74.36472 70.18861 65.80399 62.26202 59.52045 57.46432 56.60991 56.04805 55.85074 55.66654 55.31148 54.59011 53.42669 51.88737 -9999 -9999 -9999 -9999 -9999 -9999 -9999 -9999 -9999 -9999 -9999 -9999 -9999 -9999 -9999 -9999 -9999 -9999 -9999 -9999 -9999 -9999 -9999 -9999 -9999 -9999 -9999 -9999 -9999 -9999 -9999 -9999 35.76962 35.83705 36.70916 38.02041 39.49527 41.68666 43.62603 44.44765 44.00459 42.48389 40.36231 -9999 -9999 -9999 -9999 -9999 -9999 -9999 -9999 -9999 -9999 -9999 -9999 -9999 -9999 -9999 -9999 -9999 -9999 -9999 -9999 -9999 -9999 -9999 -9999 -9999 -9999 -9999 -9999 -9999 -9999 -9999 -9999 -9999 -9999 -9999 -9999 -9999 -9999 -9999 -9999 -9999 -9999 -9999 -9999 -9999 -9999 -9999 -9999 -9999 -9999 -9999 -9999 -9999 -9999 -9999 -9999 -9999 -9999 -9999 -9999 -9999 -9999 -9999 -9999 -9999 -9999 -9999 -9999 -9999 -9999 -9999 -9999 -9999 -9999 -9999 -9999 -9999 -9999 -9999 -9999 -9999 -9999 -9999 -9999 -9999 -9999 -9999 -9999 -9999 -9999 -9999 -9999 -9999 -9999 -9999 -9999 -9999 -9999 -9999 -9999 -9999 -9999 -9999 -9999 -9999 -9999 -9999 -9999 -9999 -9999 -9999 -9999 -9999 -9999 -9999 -9999 -9999 -9999 -9999 -9999 -9999 -9999 -9999 -9999 -9999 -9999 -9999 -9999 -9999 -9999 -9999 -9999 -9999 -9999 -9999 -9999 -9999 -9999 -9999 -9999 -9999 -9999 -9999 -9999 -9999 -9999 -9999 -9999 -9999 -9999 -9999 -9999 -9999 -9999 -9999 -9999 -9999 -9999 -9999 -9999 -9999 -9999 -9999 -9999 -9999
123.9002 119.1762 115.4 113.2518 113.1422 114.8016 117.4435 120.5124 123.6575 126.719 129.7781 131.7311 132.4299 132.362 132.254 132.9637 134.1461 135.64 138.1198 140.5117 142.9466 144.9133 145.779 144.5124 141.2108 136.1586 130.5772 125.1283 119.9305 115.0448 110.7095 107.2815 104.2059 100.8469 98.02895 95.73296 94.88593 94.82839 95.48549 96.95305 98.45214 99.79298 100.1542 99.58037 98.63689 97.27083 95.94198 95.17846 94.97001 95.31927 97.24007 100.1975 104.1907 108.7044 113.2585 117.3964 121.2549 125.2082 129.0102 132.207 135.0185 137.11 137.9714 136.9651 134.4176 130.8512 127.4392 123.8847 119.9865 116.7005 115.7803 114.9478 114.1528 113.1437 111.634 109.8617 107.0576 103.7726 100.7724 98.16415 95.08327 92.29144 89.41389 86.57515 83.28705 79.39614 75.51534 72.77375 70.79712 -9999 -9999 -9999 -9999 -9999 -9999 -9999 -9999 -9999 -9999 -9999 -9999 60.20002 62.3706 65.6545 70.03967 75.13764 80.60431 86.16288 91.42934 95.92116 99.03718 101.4932 103.9571 106.004 108.1879 110.4934 113.2735 116.7227 119.186 119.8476 118.7755 116.1296 113.3197 110.4706 107.704 105.1242 102.9254 101.7368 101.4855 102.046 103.5499 105.7148 108.9423 112.6088 116.0168 119.4785 122.8458 126.0601 128.9959 131.2926 132.8499 133.6858 133.837 133.3149 132.0237 129.7425 126.4751 122.9499 119.4866 116.0701 112.8944 109.6624 106.6895 104.392 102.7757 101.7864 101.0299 100.833 101.1963 102.1717 103.3813 104.6937 105.2918 105.2732 105.0915 104.9925 105.0126 105.1009 105.1427 104.8938 103.9673 102.0865 99.33663 95.67041 91.84499 88.66132 86.14795 84.3698 82.28557 79.98833 77.66339 75.55511 73.88617 72.19339 70.70569 69.67056 69.23841 69.24368 69.61001 70.3463 71.24577 72.66318 74.33254 75.71803 76.18095 75.34773 73.44913 69.98631 65.9472 62.40991 59.20112 56.23191 54.85425 53.83119 53.11604 52.55596 52.11786 51.32703 49.95152 -9999 -9999 -9999 -9999 -9999 -9999 -9999 -9999 -9999 -9999 -9999 -9999 -9999 -9999 -9999 -9999 -9999 -9999 -9999 -9999 -9999 -9999 -9999 -9999 -9999 -9999 -9999 -9999 -9999 -9999 -9999 -9999 -9999 -9999 -9999 -9999 -9999 36.68891 38.62104 40.42896 41.29691 40.65125 39.13887 37.03053 -9999 -9999 -9999 -9999 -9999 -9999 -9999 -9999 -9999 -9999 -9999 -9999 -9999 -9999 -9999 -9999 -9999 -9999 -9999 -9999 -9999 -9999 -9999 -9999 -9999 -9999 -9999 -9999 -9999 -9999 -9999 -9999 -9999 -9999 -9999 -9999 -9999 -9999 -9999 -9999 -9999 -9999 -9999 -9999 -9999 -9999 -9999 -9999 -9999 -9999 -9999 -9999 -9999 -9999 -9999 -9999 -9999 -9999 -9999 -9999 -9999 -9999 -9999 -9999 -9999 -9999 -9999 -9999 -9999 -9999 -9999 -9999 -9999 -9999 -9999 -9999 -9999 -9999 -9999 -9999 -9999 -9999 -9999 -9999 -9999 -9999 -9999 -9999 -9999 -9999 -9999 -9999 -9999 -9999 -9999 -9999 -9999 -9999 -9999 -9999 -9999 -9999 -9999 -9999 -9999 -9999 -9999 -9999 -9999 -9999 -9999 -9999 -9999 -9999 -9999 -9999 -9999 -9999 -9999 -9999 -9999 -9999 -9999 -9999 -9999 -9999 -9999 -9999 -9999 -9999 -9999 -9999 -9999 -9999 -9999 -9999 -9999 -9999 -9999 -9999 -9999 -9999 -9999 -9999 -9999 -9999 -9999 -9999 -9999 -9999 -9999 -9999 -9999 -9999 -9999 -9999 -9999 -9999 -9999 -9999 -9999 -9999 -9999 -9999 -9999
125.9885 121.8294 118.0948 115.9822 116.0298 117.6634 120.042 122.7349 125.4776 128.0343 129.688 130.1323 130.1758 130.1693 130.5623 132.3028 134.4575 136.5743 139.0593 140.9019 142.4131 143.3145 143.2176 141.6538 138.3975 133.7702 128.7706 123.9794 119.3327 114.8228 110.6433 107.204 104.0483 100.4946 97.47709 95.0564 93.62745 93.0679 93.42569 94.54545 95.65214 96.74361 96.95139 96.29089 95.62175 94.90987 94.21233 93.99461 94.29744 95.13345 97.34547 100.5265 104.7644 109.5179 114.2524 118.4997 122.1036 125.7444 129.643 133.1027 135.8885 138.078 138.7578 137.7607 135.2262 131.9653 128.6779 125.0874 121.2488 118.38 117.0984 116.505 116.1533 115.5001 114.1088 111.863 108.1716 104.2101 100.8596 98.41994 96.02251 94.10836 91.63911 89.2173 86.14541 82.34943 78.45745 75.37085 72.84865 -9999 -9999 -9999 -9999 -9999 -9999 -9999 -9999 -9999 -9999 -9999 -9999 60.03976 61.79666 65.27149 69.95187 75.17215 80.48048 85.53975 89.99508 93.4892 95.84352 97.82365 99.76388 101.7749 104.2353 106.8439 110.0914 113.8401 116.6749 117.6838 116.7595 114.2817 111.0911 107.9743 105.0794 102.548 100.5959 99.72136 99.57462 99.9412 101.0399 103.1803 106.2016 109.7098 113.0924 116.4696 119.8983 123.1578 126.197 128.937 131.0878 132.5717 133.3802 133.5459 132.9472 131.1968 128.4857 124.8304 121.0844 117.4676 113.6869 109.5211 105.5315 102.4214 100.2703 99.02084 98.00247 97.67912 98.01672 98.95338 100.0509 101.2584 101.6694 101.237 100.6981 100.4058 100.3516 100.4378 100.5528 100.5337 100.1362 99.08656 97.11221 93.82243 90.23609 87.19643 84.78091 82.70221 80.40661 77.88353 75.40839 73.21945 71.16382 69.25737 67.46372 66.13522 65.60901 65.62637 66.07274 66.98926 68.03922 69.51063 71.26241 73.09013 73.77644 73.19727 71.91858 69.61403 66.22572 62.94082 59.5396 56.25583 54.28235 52.78452 51.54239 50.4592 49.83965 48.89391 47.21732 -9999 -9999 -9999 -9999 -9999 -9999 -9999 -9999 -9999 -9999 -9999 -9999 -9999 -9999 -9999 -9999 -9999 -9999 -9999 -9999 -9999 -9999 -9999 -9999 -9999 -9999 -9999 -9999 -9999 -9999 -9999 -9999 -9999 -9999 -9999 -9999 -9999 -9999 36.23058 38.00979 38.80999 37.83208 36.09955 34.12604 -9999 -9999 -9999 -9999 -9999 -9999 -9999 -9999 -9999 -9999 -9999 -9999 -9999 -9999 -9999 -9999 -9999 -9999 -9999 -9999 -9999 -9999 -9999 -9999 -9999 -9999 -9999 -9999 -9999 -9999 -9999 -9999 -9999 -9999 -9999 -9999 -9999 -9999 -9999 -9999 -9999 -9999 -9999 -9999 -9999 -9999 -9999 -9999 -9999 -9999 -9999 -9999 -9999 -9999 -9999 -9999 -9999 -9999 -9999 -9999 -9999 -9999 -9999 -9999 -9999 -9999 -9999 -9999 -9999 -9999 -9999 -9999 -9999 -9999 -9999 -9999 -9999 -9999 -9999 -9999 -9999 -9999 -9999 -9999 -9999 -9999 -9999 -9999 -9999 -9999 -9999 -9999 -9999 -9999 -9999 -9999 -9999 -9999 -9999 -9999 -9999 -9999 -9999 -9999 -9999 -9999 -9999 -9999 -9999 -9999 -9999 -9999 -9999 -9999 -9999 -9999 -9999 -9999 -9999 -9999 -9999 -9999 -9999 -9999 -9999 -9999 -9999 -9999 -9999 -9999 -9999 -9999 -9999 -9999 -9999 -9999 -9999 -9999 -9999 -9999 -9999 -9999 -9999 -9999 -9999 -9999 -9999 -9999 -9999 -9999 -9999 -9999 -9999 -9999 -9999 -9999 -9999 -9999 -9999 -9999 -9999 -9999 -9999 -9999 -9999
